# .PCD v0.7 - Point Cloud Data file format
VERSION 0.7
FIELDS x y z noise intensity gray
SIZE 4 4 4 4 2 1
TYPE F F F F U U
COUNT 1 1 1 1 1 1
WIDTH 858
HEIGHT 1
VIEWPOINT 0 0 0 1 0 0 0
POINTS 858
DATA ascii
0.039631695 0.010841643 0.15100449 0.0031846864 263 94
0.040665161 0.010923675 0.15209819 0.0032525461 257 92
0.040654656 0.010731731 0.14930692 0.0033137819 252 90
0.041800089 0.010847342 0.1507953 0.0033416694 251 90
0.042933024 0.010954523 0.15215422 0.0031119843 271 97
0.043665156 0.010953803 0.15208021 0.0030664105 280 100
0.044270478 0.010925139 0.15155128 0.0031654295 269 96
0.044783928 0.010876097 0.15073088 0.0030106949 290 104
0.045238987 0.010814482 0.14973751 0.0030466083 280 100
0.046324145 0.010901785 0.15080079 0.0029843703 289 103
0.047354095 0.010969741 0.15165657 0.0029755794 289 103
0.048490874 0.011064571 0.15281467 0.002942184 295 105
0.048789378 0.01096691 0.15130931 0.0028758124 307 110
0.050079968 0.011092792 0.15288268 0.0030783934 276 99
0.05089125 0.011109193 0.15294001 0.0027487488 330 118
0.051551938 0.011093643 0.15255728 0.0027981873 326 117
0.052442461 0.011126105 0.15282948 0.0028383581 317 113
0.053558853 0.011210803 0.15374389 0.0027361123 337 121
0.05470024 0.011292369 0.15467535 0.0027663519 328 117
0.055455308 0.011292919 0.15449557 0.0028141527 331 118
0.056318674 0.011315075 0.15460077 0.0028218019 325 116
0.05697909 0.011296279 0.15414619 0.0027436994 338 121
0.057988118 0.011351102 0.1546215 0.0029263704 315 113
0.05899692 0.01139944 0.155075 0.002946021 317 113
0.05937041 0.011325225 0.15385154 0.0029115945 304 109
0.060149815 0.011333306 0.15367357 0.0030269383 299 107
0.060969818 0.011344634 0.15360755 0.0030453131 295 105
0.062669851 0.011521477 0.15570424 0.0030717782 298 107
0.063725069 0.011572773 0.15616278 0.0029544386 305 109
0.064206392 0.011523959 0.15519583 0.0031427622 290 104
0.064603612 0.011456244 0.15404612 0.0033543699 263 94
0.064643651 0.011333363 0.1520804 0.0033042319 270 96
0.064422652 0.011162144 0.14954086 0.0033772199 261 93
0.06703046 0.011484347 0.15353461 0.0034408651 250 89
0.067506954 0.01143407 0.152604 0.0035595566 245 87
0.06897945 0.011556766 0.1539062 0.0038645272 226 81
0.069942996 0.011587301 0.15404539 0.0041555073 200 71
0.070314787 0.011525243 0.15288062 0.0040537864 201 72
0.071135595 0.01153216 0.15269548 0.004303474 188 67
0.071366876 0.011445101 0.15126258 0.0043832534 182 65
0.071793072 0.011391521 0.15027535 0.0043964884 182 65
0.07259699 0.011398262 0.15008478 0.0044377297 179 64
0.073645979 0.011443634 0.15039618 0.0048227338 165 59
0.07405173 0.011390612 0.14940932 0.0050171912 148 53
0.074431553 0.0113346 0.14839084 0.0046872948 166 59
0.075422406 0.011372493 0.14859682 0.0050662928 146 52
0.075954676 0.011337506 0.14791654 0.0057712141 131 47
0.076233543 0.011266314 0.14676563 0.0058588581 126 45
0.076596409 0.011210091 0.1458118 0.0058897892 132 47
0.078066371 0.011315959 0.14696494 0.0065850322 110 39
0.081344716 0.011676275 0.15148652 0.0069120103 103 36
0.081795596 0.011633384 0.15070426 0.0078121582 88 31
-0.089812115 0.012422591 0.1502116 0.0037106753 217 77
-0.087602347 0.012222608 0.14772749 0.0036904798 221 79
-0.087368503 0.012298143 0.1485797 0.0034540014 233 83
-0.086773247 0.012320863 0.1488626 0.0032801654 256 91
-0.08614894 0.012346135 0.14912319 0.0032781416 252 90
-0.085448764 0.012351312 0.14926825 0.0032093616 262 94
-0.084580943 0.012340076 0.14916173 0.0031674742 271 97
-0.083484419 0.012290777 0.14865787 0.0033764015 243 87
-0.082637377 0.012279575 0.14861928 0.0035490007 228 81
-0.081867822 0.012281733 0.14874715 0.003465493 243 87
-0.081703842 0.012370817 0.1499968 0.0033446213 257 92
-0.082322575 0.012583327 0.15274674 0.0031119173 280 100
-0.081105322 0.012518729 0.15213975 0.0030381186 287 103
-0.07875286 0.012271227 0.14936796 0.0029111588 304 109
-0.078012116 0.012273948 0.14963682 0.0028890728 308 110
-0.077654026 0.012338961 0.15066603 0.0026820933 343 123
-0.078080028 0.012532596 0.15327559 0.002553798 364 130
-0.078015499 0.012651306 0.1549692 0.0026545448 342 122
-0.077225715 0.012648994 0.1552473 0.0028348539 315 113
-0.076142646 0.012598878 0.15493713 0.0028136557 323 116
-0.075239331 0.012578548 0.15498605 0.0027188617 337 121
-0.074557602 0.012596899 0.15551127 0.002732191 331 118
-0.073579729 0.012564061 0.1553987 0.0026608019 346 124
-0.071951523 0.012419956 0.15390556 0.0026308298 351 126
-0.071871758 0.012537542 0.15571952 0.0026438641 347 124
-0.070886068 0.012503153 0.1555727 0.0026309569 349 125
-0.069532305 0.012403145 0.15460615 0.0027407787 329 118
-0.068338268 0.012324393 0.15395956 0.0028125434 320 114
-0.067199342 0.012259061 0.15341252 0.0026911928 335 120
-0.06555701 0.01209412 0.15166694 0.0026882119 348 124
-0.064571984 0.012054041 0.15141851 0.0026029048 356 127
-0.063849591 0.012056504 0.15176181 0.0025566085 372 133
-0.063076727 0.012054417 0.15197933 0.0025885566 366 131
-0.062143631 0.012017112 0.15181519 0.0026476693 351 126
-0.061355043 0.01200621 0.15197334 0.0026856109 344 123
-0.060364857 0.011960112 0.15162125 0.0027024576 339 121
-0.058546703 0.011746601 0.14913182 0.0028378537 305 109
-0.05780939 0.011742227 0.14935562 0.0033972836 242 86
-0.057309702 0.011791533 0.15019569 0.0037628794 201 72
-0.056329649 0.011736975 0.14977007 0.0044072531 159 57
-0.05657763 0.011945163 0.15263706 0.0054393546 124 44
-0.052284505 0.011186171 0.1431261 0.0062914141 102 36
-0.051983714 0.011273237 0.14442894 0.0084239552 73 26
-0.051614515 0.011341773 0.14555275 0.011451922 52 18
-0.049617454 0.011054236 0.14203842 0.018616978 32 11
-0.046645019 0.010539115 0.13558252 0.016318977 37 13
-0.04473253 0.010251026 0.13203476 0.014870496 40 14
-0.043608952 0.01013789 0.13072564 0.013494467 45 16
-0.042109553 0.009932667 0.12822433 0.0095885973 66 23
-0.043137982 0.010326335 0.13345264 0.011447925 59 21
-0.042362168 0.010292293 0.1331584 0.010546199 60 21
-0.041106049 0.010139661 0.1313187 0.0089412536 76 27
-0.040821116 0.01022544 0.13256568 0.0099995658 65 23
-0.041485243 0.010555261 0.13697751 0.0081627909 87 31
-0.041337695 0.010690097 0.13880727 0.0089040129 77 27
-0.040501874 0.010643763 0.13833362 0.0070124478 106 38
-0.040142879 0.010721943 0.13947853 0.0064503266 111 39
-0.040087316 0.010886189 0.14174584 0.0073701655 94 33
-0.039625805 0.010948282 0.14261757 0.0067765126 105 37
-0.038457327 0.010808999 0.14092378 0.0066472162 112 40
-0.037741397 0.010794093 0.1408453 0.0059579727 126 45
-0.036727972 0.01069631 0.13962196 0.0046405336 173 62
-0.035689563 0.010584072 0.13826591 0.0044360971 181 65
-0.034990806 0.010573138 0.13817051 0.0034700045 251 90
-0.034590684 0.01064903 0.13926737 0.0033905213 260 93
-0.034110382 0.010703892 0.14008155 0.0034719005 258 92
-0.033343047 0.010673293 0.1397199 0.0033668054 272 97
-0.032621823 0.010651755 0.13953404 0.0032135176 306 109
-0.032062426 0.010687475 0.14003186 0.0028886923 326 117
-0.031625163 0.010761494 0.14108974 0.0039193025 202 72
-0.033639506 0.011695266 0.15336463 0.0077153943 87 31
-0.032543324 0.011559882 0.15167421 0.0094507318 69 24
-0.031166505 0.011322715 0.1485845 0.0080794925 85 30
-0.03057088 0.011359825 0.14915477 0.0060887765 115 41
-0.029855777 0.01135767 0.14913924 0.0045737033 165 59
-0.029360373 0.011435881 0.15024059 0.0035275065 227 81
-0.028672054 0.011445397 0.15037836 0.0031542741 271 97
-0.028263964 0.011566835 0.1520395 0.0028260946 316 113
-0.027739348 0.011650146 0.15313797 0.0025693683 366 131
-0.027160456 0.011707176 0.15395391 0.0025763568 362 130
-0.025949964 0.011496284 0.15117449 0.0024496682 394 141
-0.025280101 0.011512314 0.15144096 0.0024983946 383 137
-0.024602013 0.011527343 0.15169437 0.0024254348 407 146
-0.023743857 0.011458525 0.15077324 0.0024312399 403 144
-0.023081141 0.011479758 0.15109868 0.0024669466 395 141
-0.022545531 0.011571959 0.15229659 0.0025164459 390 140
-0.021812828 0.011562916 0.15221447 0.0024150047 406 145
-0.021058556 0.011538549 0.1519305 0.0022308691 447 160
-0.020214621 0.011463964 0.15098494 0.0021461681 475 170
-0.019448677 0.011434113 0.15055767 0.002082902 506 181
-0.018728454 0.011424541 0.15045871 0.0020275167 519 186
-0.017975684 0.011396168 0.15010738 0.0021999159 468 168
-0.017390154 0.01147238 0.1511337 0.0025187456 387 138
-0.016709393 0.01149237 0.15141489 0.0026265807 357 128
-0.015976651 0.011476383 0.1512174 0.0024847768 388 139
-0.01510159 0.0113515 0.14958489 0.0023065472 435 156
-0.014769969 0.011642378 0.15342653 0.0022282207 459 164
-0.013868667 0.011494375 0.15147993 0.0023620047 415 149
-0.013147994 0.011483572 0.15133674 0.0023764921 417 149
-0.01244951 0.011495792 0.15149696 0.0022997262 437 156
-0.011682049 0.011441372 0.15077433 0.002236845 461 165
-0.010899147 0.011363233 0.1497346 0.0021043718 493 177
-0.010305642 0.011484755 0.15132581 0.0020929081 499 179
-0.0096091982 0.011495722 0.15151678 0.0020890096 501 179
-0.0089005902 0.011503372 0.1515982 0.0021437509 483 173
-0.0082337707 0.011563708 0.15237381 0.0024473516 400 143
-0.0074964608 0.011528718 0.15194999 0.0026722192 349 125
-0.0068278452 0.011607806 0.15296341 0.0027040637 339 121
-0.0061365315 0.011647655 0.15351674 0.0027725985 327 117
-0.00540666 0.011629951 0.15324971 0.0030192412 299 107
-0.004691314 0.011636713 0.15336229 0.0030309816 301 108
-0.0039777616 0.011651174 0.1535717 0.0029384955 307 110
-0.0032793605 0.011726198 0.15457948 0.002882828 316 113
-0.0025448883 0.011704597 0.15424666 0.0028057296 318 114
-0.0018239834 0.011714133 0.15438177 0.0027974139 328 117
-0.0010944513 0.011644399 0.15346745 0.002633543 355 127
-0.00037334277 0.01156896 0.15247786 0.0024856781 379 136
0.00033963349 0.011533581 0.15201157 0.0024475569 392 140
0.0010462065 0.011475866 0.15124626 0.0025216064 375 134
0.0017432442 0.011372375 0.14987771 0.0026231506 367 131
0.0024793765 0.011531658 0.15196763 0.0026705675 347 124
0.0031991454 0.011556097 0.15233715 0.0025970151 360 129
0.0039045138 0.011532044 0.15200146 0.0025349515 373 133
0.0046194931 0.01153942 0.15208004 0.0024201192 401 144
0.0053390646 0.0115501 0.15225893 0.0022594712 446 160
0.0060336716 0.011514178 0.15175752 0.0023063412 438 157
0.0066981986 0.011437752 0.15078337 0.0023245907 426 153
0.0074324049 0.011480122 0.15130949 0.0024914048 389 139
0.008048051 0.011343352 0.14953059 0.0026054233 362 130
0.0087871384 0.01139841 0.15021954 0.0026900384 344 123
0.0095737837 0.011497834 0.15154462 0.0028543768 320 114
0.01031102 0.011522436 0.15188836 0.002868637 320 114
0.010990874 0.011488135 0.15144633 0.0028010742 325 116
0.011688773 0.011479796 0.15128532 0.0027536065 334 119
0.012407974 0.011491793 0.15144891 0.0029214013 303 108
0.013010147 0.011395412 0.15017954 0.0035151485 231 82
0.013851854 0.011507479 0.15165262 0.0039923098 191 68
0.014539296 0.011489909 0.15141726 0.0041110949 180 64
0.015148468 0.01141456 0.1504205 0.0040530181 187 67
0.015752239 0.011341612 0.14944622 0.0034431505 234 84
0.016557852 0.01141362 0.15038197 0.0028779141 307 110
0.017487425 0.011559724 0.15235086 0.0025765677 365 131
0.018239167 0.011582365 0.1526313 0.0024368335 398 142
0.018675681 0.011413175 0.15037471 0.0023873199 407 146
0.019240422 0.011331444 0.14927104 0.0023342026 427 153
0.020055117 0.011397165 0.1501098 0.0023199422 431 154
0.020960415 0.01150575 0.15156965 0.0023800335 416 149
0.021867724 0.011609843 0.1529039 0.0024606364 399 143
0.022564562 0.011601257 0.15274911 0.0024673808 389 139
0.0233321 0.011623404 0.15306123 0.0026143303 372 133
0.024055148 0.011626893 0.15306054 0.0025685886 372 133
0.024822002 0.011647942 0.15334873 0.0024783001 393 141
0.02521945 0.011501384 0.15136836 0.0024808061 391 140
0.026029455 0.011542964 0.15192182 0.0024623382 395 141
0.026883595 0.011605591 0.1526899 0.0023996655 401 144
0.027579298 0.011595357 0.15255199 0.0024678255 391 140
0.028434612 0.011653372 0.15325402 0.0025282847 374 134
0.029317627 0.011716491 0.15407594 0.0026384876 359 128
0.029989105 0.011698388 0.15376668 0.0026514616 354 127
0.030236783 0.011514726 0.15133978 0.0027604531 338 121
0.030322755 0.01128364 0.14822452 0.0027476579 333 119
0.031192845 0.01134497 0.14901282 0.0027531849 335 120
0.032342177 0.011505532 0.15103729 0.0028240161 326 117
0.03327838 0.011581713 0.15201476 0.0028153583 320 114
0.034021396 0.011593217 0.15207095 0.0028825803 310 111
0.034663249 0.011565526 0.15168028 0.002839237 319 114
0.035167329 0.011498287 0.15069954 0.0028843633 309 110
0.035743821 0.011453507 0.1500759 0.0028874029 309 110
0.036700066 0.01153417 0.15102866 0.0029381148 295 105
0.03757032 0.011578847 0.15156677 0.0029948468 282 101
0.038478412 0.011639155 0.1522461 0.0030233269 279 100
0.039219595 0.011642716 0.15224053 0.0032866916 250 89
0.039714351 0.011578766 0.15128982 0.0032596246 252 90
0.039712429 0.011374633 0.14850529 0.0032875696 252 90
0.04064003 0.01143563 0.14924064 0.0032337713 258 92
0.04160998 0.011509347 0.15007426 0.0031867072 264 94
0.042994298 0.011689605 0.15235727 0.0030737207 274 98
0.043785043 0.011708374 0.15246613 0.0031289521 267 95
0.0440774 0.011596532 0.15087035 0.0030210936 280 100
0.044428263 0.011502 0.14949736 0.0028917484 299 107
0.04508676 0.011485129 0.14919697 0.0030395426 280 100
0.046054203 0.011549539 0.14988489 0.0029657918 292 104
0.04702577 0.011614043 0.15057226 0.003036147 282 101
0.047748443 0.011615923 0.15043706 0.003086291 277 99
0.048890721 0.011717007 0.15158513 0.0030585029 280 100
0.049807694 0.011762937 0.15201259 0.0030080031 288 103
0.050602209 0.011777761 0.15203707 0.0026969779 326 117
0.051521894 0.011821872 0.15242879 0.0027012192 337 121
0.052199226 0.011808665 0.15208085 0.0028316204 320 114
0.053116012 0.011850211 0.15243253 0.0029093006 308 110
0.054222282 0.011931091 0.15328316 0.0028583063 317 113
0.055327393 0.012009396 0.15409803 0.0027419229 333 119
0.056328967 0.0120633 0.15458746 0.0027187411 332 119
0.057038296 0.012053888 0.15426461 0.0028523814 319 114
0.05742025 0.011981311 0.15306564 0.0030031197 298 107
0.058751889 0.012101181 0.15438862 0.0029582453 308 110
0.059790056 0.012157159 0.15488312 0.0029988165 300 107
0.060422234 0.012136176 0.15432672 0.003111349 291 104
0.061456639 0.01219042 0.15479082 0.0031361168 286 102
0.062646657 0.012277822 0.15560292 0.0031709049 279 100
0.063359246 0.012265563 0.1552099 0.0030768157 292 104
0.063914962 0.012229567 0.15444753 0.0031580036 291 104
0.064279608 0.012152213 0.15322465 0.0032375392 280 100
0.064882383 0.012126125 0.15258622 0.003266406 270 96
0.066158421 0.012220867 0.15352559 0.003388419 266 95
0.066735625 0.012189877 0.15280972 0.0033848118 269 96
0.067882396 0.012257329 0.15339625 0.003573515 242 86
0.068524092 0.012233882 0.15283385 0.0038705845 223 80
0.069405556 0.01225831 0.15280007 0.0042371107 199 71
0.070494309 0.012313281 0.15320902 0.0042016674 202 72
0.071038246 0.012273706 0.15244097 0.0040759728 208 74
0.071082637 0.012154581 0.15061489 0.0042656125 191 68
0.072365053 0.012243154 0.15142687 0.0043981536 183 65
0.073701978 0.012338893 0.15232295 0.0045009814 181 65
0.074371181 0.012323629 0.15184139 0.0046211085 174 62
0.074555673 0.012229062 0.15037996 0.0048737181 165 59
0.07571502 0.012290258 0.15090309 0.0047845701 168 60
0.075963072 0.012210368 0.14962579 0.0052290051 147 52
0.07623475 0.012130576 0.14841576 0.005587006 139 49
0.077037334 0.012138225 0.14827654 0.005972228 125 44
0.07821396 0.012204692 0.14885916 0.0061114235 124 44
0.079822116 0.012332785 0.15024757 0.0067607337 106 38
0.081611112 0.012492629 0.15195934 0.0070439088 103 36
0.08293958 0.012574986 0.15278819 0.0074671414 95 34
-0.087068148 0.012790699 0.14564155 0.0037065982 215 77
-0.08770638 0.012994124 0.14790881 0.0035956919 224 80
-0.087348334 0.013059265 0.14855176 0.0034814985 234 84
-0.087398581 0.013178308 0.14993313 0.0034178037 237 85
-0.087768905 0.013355438 0.15192547 0.0032923734 254 91
-0.086746037 0.013317592 0.15153302 0.0032043557 261 93
-0.085070811 0.013179984 0.15001006 0.0032040346 263 94
-0.083506308 0.013053897 0.14868183 0.0034268463 232 83
-0.082455054 0.013013753 0.14827682 0.0034578179 240 86
-0.081731364 0.013020993 0.14847563 0.0033612114 247 88
-0.082721069 0.01330079 0.15184495 0.0032344603 264 94
-0.081754379 0.013268871 0.15166382 0.0031048309 274 98
-0.081904978 0.013421717 0.15360114 0.0030061041 292 104
-0.08105009 0.01341262 0.15368672 0.0029514823 296 106
-0.079498775 0.013283127 0.15245073 0.0029775796 302 108
-0.078018248 0.013164602 0.1513356 0.0029708561 298 107
-0.078207582 0.01332898 0.15347308 0.0028221919 319 114
-0.077854201 0.013404868 0.15459575 0.0026991896 343 123
-0.076950967 0.013382087 0.15464215 0.0027674413 330 118
-0.075998515 0.013356294 0.15459131 0.0027786337 324 116
-0.075094514 0.013333999 0.15463544 0.0026237394 361 129
-0.074097149 0.013295319 0.15448792 0.00259341 361 129
-0.072532833 0.013153838 0.15314159 0.0025726361 368 132
-0.072637089 0.013316013 0.15532024 0.002614008 358 128
-0.072231099 0.013380818 0.15643479 0.0025773279 365 131
-0.070325851 0.013173445 0.15429229 0.0026875208 341 122
-0.069174431 0.013103094 0.15374848 0.002747277 328 117
-0.06884288 0.013183895 0.1550341 0.0028034744 319 114
-0.068066232 0.013186502 0.15534115 0.0027652779 324 116
-0.066088736 0.012947582 0.15284772 0.002757634 332 119
-0.064885959 0.012861785 0.15209404 0.0026251264 357 128
-0.064154163 0.012864247 0.15243702 0.0026043768 361 129
-0.063169047 0.012819394 0.15215339 0.0026373467 359 128
-0.062102251 0.012751529 0.1516539 0.0027328241 338 121
-0.061176199 0.012717328 0.15148273 0.0028454077 322 115
-0.059796885 0.012580746 0.15014771 0.0030607309 278 99
-0.058331855 0.012427456 0.14854327 0.0041077365 186 66
-0.056850057 0.012261682 0.14683172 0.0053804745 128 45
-0.056341074 0.012309043 0.14761178 0.0061817733 101 36
-0.05657151 0.012521174 0.15037213 0.0094129136 60 21
-0.054042988 0.012115299 0.14575475 0.014175457 36 12
-0.053884059 0.012240697 0.14746508 0.019503908 27 9
-0.049805637 0.01146799 0.13833599 0.016693015 37 13
-0.049010757 0.011439285 0.13816896 0.017536055 35 12
-0.047453389 0.011224823 0.13580318 0.016544793 38 13
-0.043031339 0.010322664 0.12504593 0.011789934 54 19
-0.042313118 0.010294779 0.12485699 0.012278723 48 17
-0.042837881 0.010572754 0.12838106 0.014552288 43 15
-0.043907933 0.010995287 0.13366616 0.010871901 60 21
-0.044474687 0.011302323 0.1375529 0.011412955 61 21
-0.043107271 0.011123896 0.13547564 0.010614122 64 22
-0.040935107 0.010723396 0.13073988 0.0087478366 81 29
-0.040048152 0.010653408 0.13002321 0.008924569 80 28
-0.040845215 0.0110361 0.13483104 0.0080442028 88 31
-0.041402776 0.01136512 0.13898742 0.0087216301 81 29
-0.040411945 0.011277137 0.13799308 0.0071540358 101 36
-0.039695118 0.01125925 0.13790496 0.0075884303 98 35
-0.039372608 0.011354333 0.13919684 0.0072409334 105 37
-0.038566954 0.011315208 0.13878988 0.0060337274 128 45
-0.03744141 0.011174526 0.13718504 0.005939072 132 47
-0.036730777 0.011154759 0.13705845 0.0048702569 166 59
-0.036247637 0.01120881 0.13778114 0.0050307931 154 55
-0.035514873 0.011181574 0.13755815 0.0049681938 158 56
-0.034131255 0.010948724 0.13474633 0.0037114057 227 81
-0.034280486 0.011204822 0.13800126 0.0037980527 225 80
-0.033852428 0.011281224 0.13899203 0.0036303371 246 88
-0.033356171 0.011334237 0.13974494 0.0034542428 262 94
-0.032360226 0.011220358 0.13838153 0.0031255404 299 107
-0.031961054 0.0113126 0.13956004 0.0039294856 218 78
-0.032527037 0.011752702 0.14508352 0.0068073152 103 36
-0.034326401 0.012671345 0.15645973 0.0072376141 91 32
-0.033031363 0.012459664 0.15394071 0.0061809784 109 39
-0.031741947 0.012245215 0.15132096 0.0050560217 144 51
-0.030428067 0.012004244 0.14842495 0.0038612548 205 73
-0.030088454 0.012151739 0.15027335 0.0032345599 260 93
-0.029294813 0.012113447 0.14987761 0.0027636306 322 115
-0.028845256 0.012225523 0.15127964 0.0027274818 336 120
-0.028288448 0.012294176 0.15214458 0.0026298699 353 126
-0.027751319 0.012372047 0.15317793 0.002539651 366 131
-0.026880287 0.012305724 0.15236267 0.0026275818 365 131
-0.025924433 0.012190629 0.1510015 0.0026028827 365 131
-0.02518631 0.012178768 0.15085565 0.0025509018 378 135
-0.024566373 0.012222122 0.15144724 0.0025213778 380 136
-0.023668915 0.01213026 0.15030529 0.0024970435 392 140
-0.023039978 0.012169332 0.15083899 0.0025118026 391 140
-0.022550786 0.012291428 0.15233921 0.0025477291 385 138
-0.021908768 0.012330182 0.15286495 0.0025361108 383 137
-0.021118872 0.012287944 0.15238181 0.0024297452 405 145
-0.020370627 0.012269367 0.15212888 0.0024087024 408 146
-0.019501559 0.012171582 0.15095185 0.0022210774 465 167
-0.018708061 0.012115036 0.15027651 0.0020935165 496 178
-0.018015724 0.012124898 0.15042944 0.0020384633 521 187
-0.017280435 0.012106487 0.15016486 0.0021862325 463 166
-0.016810725 0.012278443 0.15231933 0.0024706868 393 141
-0.015888531 0.012120097 0.15037161 0.0024540194 398 142
-0.015232092 0.012158747 0.15086782 0.0023294205 422 151
-0.014575643 0.012200698 0.15140042 0.0023162581 434 155
-0.013849613 0.012185243 0.15121602 0.0024016998 417 149
-0.013177748 0.012222163 0.15167695 0.0022729156 446 160
-0.012494154 0.012251277 0.15204102 0.002262922 448 160
-0.011751958 0.01222241 0.15168086 0.0021859903 462 165
-0.010987687 0.012164774 0.15095906 0.0021523554 472 169
-0.010267074 0.01215022 0.15077192 0.0021363022 490 175
-0.0095845517 0.012176601 0.15114565 0.0021066798 487 174
-0.0088783978 0.012179399 0.15116456 0.0021602917 485 174
-0.0081553943 0.012163664 0.15095349 0.0023883311 407 146
-0.007482897 0.012214319 0.1516193 0.002557429 370 132
-0.0067855623 0.012243819 0.15196028 0.002611537 357 128
-0.0060854228 0.012268847 0.1522989 0.002778789 319 114
-0.005386441 0.012307854 0.1527531 0.0028162943 323 116
-0.0046778605 0.012327428 0.15301947 0.0026489627 348 124
-0.0039744973 0.012370329 0.15357082 0.0025660968 362 130
-0.0032685027 0.012426923 0.15423365 0.0026781696 348 124
-0.0025498692 0.012446579 0.1544918 0.002700371 340 122
-0.0018115733 0.012347796 0.15327506 0.0026999346 345 123
-0.0010851861 0.012253754 0.15211235 0.0026034152 356 127
-0.00037247775 0.012249862 0.15206869 0.0025576768 372 133
0.00033897793 0.012217136 0.15166244 0.002624572 360 129
0.001036576 0.012067396 0.14979899 0.0026368743 360 129
0.0017409385 0.012085513 0.15001929 0.0027150142 338 121
0.0024588697 0.012160313 0.15093856 0.0027338592 336 120
0.0031967969 0.0122785 0.15239154 0.0027340848 336 120
0.0039432063 0.012375456 0.15363917 0.002784028 324 116
0.0046528862 0.012348224 0.15327762 0.0026654417 344 123
0.0053698616 0.012340356 0.15321472 0.0024828645 377 135
0.0060545378 0.01227246 0.15234841 0.0022491866 441 158
0.0067436285 0.012222245 0.15175024 0.0023862221 402 144
0.007402305 0.012143107 0.15073532 0.0026011441 362 130
0.0081266034 0.012164437 0.15102054 0.0027242014 335 120
0.0087961247 0.012117158 0.15039666 0.0028420235 317 113
0.0095502194 0.012174211 0.15112063 0.0029035797 317 113
0.010254767 0.012169422 0.15107235 0.0028702677 317 113
0.010946761 0.012150719 0.15084673 0.0028171141 326 117
0.011700581 0.012198181 0.15144253 0.0027828719 332 119
0.012346694 0.01213382 0.15064539 0.00310489 281 100
0.01295581 0.012050421 0.14955021 0.003860388 204 73
0.013485158 0.011896534 0.14763774 0.0043887431 165 59
0.014139817 0.011861685 0.14725429 0.0041662962 180 64
0.015121096 0.012095029 0.15013912 0.003971485 192 68
0.015836732 0.012104184 0.15023619 0.0034380453 233 83
0.016553069 0.012112678 0.150325 0.0029158925 298 107
0.017390611 0.012208442 0.15149206 0.0026134686 352 126
0.018112743 0.012215354 0.15155637 0.0025989625 364 130
0.018650938 0.012100411 0.15016183 0.002515889 387 138
0.019336971 0.012090237 0.15000507 0.0025148646 379 136
0.020218302 0.012201102 0.1513451 0.0024505896 402 144
0.021080237 0.012285421 0.15241365 0.002455418 401 144
0.021895818 0.01234481 0.15310973 0.0025294644 375 134
0.02265407 0.012361511 0.15333493 0.0025069003 384 137
0.023194814 0.012271292 0.1521659 0.0025915133 362 130
0.023989864 0.01231426 0.15264858 0.0025873256 363 130
0.024716763 0.012315766 0.15267573 0.002582965 366 131
0.025564084 0.012382007 0.15344164 0.0026026976 352 126
0.026193829 0.012337123 0.15288439 0.0025883641 364 130
0.027071673 0.01240785 0.15375505 0.0024667962 381 136
0.027743805 0.012387333 0.15343584 0.0024394838 397 142
0.028095737 0.012225583 0.15142184 0.0025082671 386 138
0.029030988 0.012321651 0.15253747 0.0025145905 388 139
0.029895786 0.01238089 0.15325534 0.0026722657 354 127
0.030317456 0.012262442 0.15171042 0.0027459287 337 121
0.030575311 0.012081614 0.14945336 0.0028054228 332 119
0.031279318 0.012079032 0.14939684 0.0028369799 325 116
0.032302536 0.01220318 0.15084435 0.0027991605 330 118
0.033260427 0.012292932 0.15191911 0.0028333152 323 116
0.033932284 0.012279757 0.15166284 0.0028890329 316 113
0.0344932 0.012222857 0.15092078 0.0028971382 311 111
0.035781886 0.012420516 0.15332133 0.0029291771 308 110
0.03625948 0.012338761 0.1522036 0.0029773656 296 106
0.036816522 0.01228331 0.15147507 0.0030782202 281 100
0.037495203 0.012274194 0.15124974 0.0032575226 263 94
0.038127746 0.012245651 0.15084395 0.0033206348 248 89
0.03893378 0.012277278 0.15111563 0.003379433 242 86
0.03947385 0.012220477 0.15035279 0.0033364438 245 87
0.039859429 0.012123122 0.14903364 0.0031450137 274 98
0.040725093 0.012167719 0.1495135 0.0031679273 266 95
0.041869003 0.01229833 0.15099029 0.0030096858 287 103
0.042725511 0.012335222 0.15136406 0.0030834829 271 97
0.04361568 0.012384938 0.15183519 0.0030350685 279 100
0.043986537 0.012289156 0.15051816 0.0029851496 278 99
0.044214703 0.012150968 0.14874248 0.0029550761 291 104
0.044866953 0.012137623 0.1484331 0.0029043667 301 108
0.045858473 0.012214907 0.14922641 0.0030055954 288 103
0.046690412 0.012241794 0.14945629 0.0030018049 285 102
0.047586266 0.01229011 0.14988831 0.0029073539 302 108
0.048714712 0.012394811 0.15100105 0.0029385292 294 105
0.049715217 0.012465454 0.15169151 0.0028373294 306 109
0.050490685 0.012477105 0.15165798 0.0026760288 341 122
0.051410198 0.012524572 0.15205882 0.002687295 335 120
0.052519199 0.012614906 0.15297306 0.0028499234 318 114
0.053074405 0.012571422 0.15225883 0.0028453581 314 112
0.054124974 0.012645882 0.15296748 0.0027570515 334 119
0.055213105 0.012725716 0.15373364 0.0026312571 351 126
0.056224346 0.012785799 0.15425885 0.0026894864 340 122
0.056931499 0.012780951 0.15393409 0.002722 337 121
0.057258263 0.012686918 0.15259224 0.0030165818 294 105
0.058298297 0.012750088 0.15313648 0.0029923802 297 106
0.059933741 0.012941166 0.15520741 0.0029870749 295 105
0.060947988 0.012999987 0.15562636 0.0030936988 292 104
0.061657604 0.012987007 0.15523563 0.0030883898 285 102
0.062590376 0.01302684 0.1554143 0.0032416638 279 100
0.063152142 0.012983262 0.15465371 0.0031492587 282 101
0.063626662 0.012922891 0.15368974 0.0032398412 274 98
0.063983843 0.012845357 0.15246396 0.0033100604 257 92
0.065024734 0.012901207 0.15287195 0.0032642994 268 96
0.065717533 0.01289147 0.15244152 0.0033337492 277 99
0.066733539 0.01293954 0.15274882 0.0033461528 263 94
0.067795053 0.01300123 0.15314895 0.0034404753 252 90
0.068192676 0.012930542 0.15204482 0.0039368896 216 77
0.069043003 0.012946203 0.15195695 0.0040342947 211 75
0.070516035 0.013082043 0.1532055 0.0041229539 208 74
0.070875429 0.01300641 0.15204097 0.003998152 215 77
0.071051277 0.012898964 0.15049809 0.0042058579 197 70
0.072535224 0.013029571 0.15173197 0.0043350034 195 70
0.073943183 0.013143838 0.15276985 0.004427799 184 66
0.075112529 0.013215499 0.15330292 0.0045979195 177 63
0.076464273 0.013317373 0.1541823 0.0047187964 170 61
0.076715402 0.013223905 0.15285493 0.0052169273 152 54
0.076486982 0.013055475 0.15061106 0.0054389383 146 52
0.076614045 0.012946901 0.14911772 0.0057755467 130 46
0.07776656 0.013013574 0.1496432 0.0058412743 129 46
0.078743547 0.013045348 0.14982463 0.0059512029 123 44
0.081023715 0.013296959 0.15247108 0.0068199509 107 38
0.081851266 0.013303941 0.15236798 0.0067194733 109 39
0.082924485 0.013352608 0.15274107 0.0076109809 95 34
-0.087331206 0.013579065 0.14608698 0.003877539 210 75
-0.087409765 0.01371041 0.14741446 0.0037341055 214 76
-0.087297127 0.013810399 0.14847103 0.0036349066 219 78
-0.087249689 0.013924516 0.14968456 0.0035678884 231 82
-0.087635323 0.014111545 0.15168704 0.0033951381 245 87
-0.088033408 0.01430604 0.15377501 0.0033122895 253 90
-0.085898101 0.014085325 0.15146257 0.0032835293 255 91
-0.084162213 0.01392881 0.1498439 0.0035318928 230 82
-0.083001703 0.013861503 0.14923993 0.0035902781 226 81
-0.082513779 0.013908583 0.14987741 0.0034576636 238 85
-0.080713987 0.013734705 0.14813234 0.003377428 248 89
-0.080933608 0.013906711 0.15012249 0.003262386 257 92
-0.081077673 0.014064225 0.15201603 0.0031033184 277 99
-0.081363492 0.014252095 0.15424728 0.0029667488 296 106
-0.079873979 0.014125895 0.15313718 0.0030520845 287 103
-0.078693137 0.014053097 0.15260202 0.002983992 295 105
-0.077210985 0.013926195 0.15147536 0.0028616686 320 114
-0.076786675 0.013991147 0.15243399 0.002696712 346 124
-0.076427162 0.014069152 0.15353703 0.0027393585 337 121
-0.075375304 0.014016502 0.15326627 0.0027648606 336 120
-0.075045384 0.014099276 0.15448199 0.0026611101 351 126
-0.072988488 0.013861974 0.15212005 0.0025815323 366 131
-0.072373278 0.013886684 0.15274835 0.0025371427 379 136
-0.072101168 0.013983636 0.15411176 0.0025365881 374 134
-0.071173951 0.013955167 0.15408894 0.0025606418 370 132
-0.069952048 0.013867533 0.15341023 0.002598007 362 130
-0.06913168 0.01385419 0.15360303 0.0027529681 327 117
-0.068775631 0.013939815 0.15483207 0.0027566219 333 119
-0.068104416 0.013962679 0.15536076 0.0027042138 330 118
-0.066668816 0.013822273 0.1541276 0.0026875683 350 125
-0.065224878 0.013683077 0.15283932 0.0026229618 357 128
-0.064326368 0.013650064 0.15278529 0.0026664692 349 125
-0.063301064 0.013594113 0.15241073 0.0027620238 335 120
-0.062291346 0.013536127 0.15206254 0.002808634 315 113
-0.061132077 0.013447758 0.15131351 0.0028906779 316 113
-0.060152303 0.013392061 0.15097545 0.0035462417 230 82
-0.057900891 0.013054373 0.1473951 0.0059110699 113 40
-0.056096628 0.012804149 0.14484099 0.012214812 44 15
-0.055090986 0.012736953 0.14429222 0.019676862 25 8
-0.054397818 0.012739957 0.14453278 0.023651717 19 6
-0.056374155 0.013372543 0.15198237 0.022277558 27 9
-0.051212359 0.012310883 0.14010653 0.01863491 33 11
-0.04803988 0.011703914 0.13337947 0.015632719 41 14
-0.046101507 0.011386059 0.12992857 0.015725428 39 14
-0.047661506 0.011934175 0.13635835 0.013997851 50 17
-0.045158677 0.01146597 0.13117257 0.01091308 65 23
-0.041900199 0.01079078 0.12360238 0.012058347 53 19
-0.042887475 0.011204088 0.12849236 0.012070299 55 19
-0.044471994 0.011787652 0.13533987 0.011484903 56 20
-0.043401711 0.011674278 0.13419589 0.010089165 71 25
-0.041992467 0.011464825 0.13193452 0.010376838 66 23
-0.041294429 0.011445991 0.13186374 0.010222657 73 26
-0.040543336 0.011410324 0.13159402 0.010627383 65 23
-0.040635951 0.01162008 0.13410293 0.0092363013 76 27
-0.040140171 0.011661097 0.13471171 0.008424446 84 30
-0.03927831 0.011595231 0.13408537 0.0095206387 74 26
-0.038655754 0.011603144 0.13425761 0.0077167135 94 33
-0.038248979 0.011672608 0.13518798 0.0067380974 114 40
-0.037774615 0.011727625 0.13590223 0.0059491578 122 43
-0.036917031 0.011658913 0.13522364 0.0058424231 126 45
-0.036156453 0.011623092 0.13488004 0.004665595 166 59
-0.035510823 0.011619004 0.13494539 0.004963282 160 57
-0.03435161 0.011449135 0.13303465 0.005212178 150 53
-0.03429196 0.011640193 0.13536322 0.0050247321 163 58
-0.033747822 0.011675015 0.13582276 0.0039293678 216 77
-0.03371793 0.01188941 0.13842328 0.0040204646 222 79
-0.033046506 0.011885758 0.13843182 0.0039111017 226 81
-0.032406267 0.011893048 0.13856338 0.0040859119 207 74
-0.031918529 0.011953029 0.13936006 0.0048695575 152 54
-0.03454503 0.013210669 0.15406966 0.0066355499 103 36
-0.034533624 0.013486767 0.15739001 0.0051380619 143 51
-0.033090141 0.013209974 0.15420169 0.0042093047 184 66
-0.031883609 0.01301498 0.15196189 0.0035300511 234 84
-0.031189501 0.013021783 0.15212847 0.0029631199 294 105
-0.030218255 0.012914993 0.15091217 0.002684566 340 122
-0.029658841 0.012982845 0.15173167 0.0026018054 353 126
-0.028772287 0.01290214 0.15086518 0.0025831512 369 132
-0.028155806 0.01294818 0.15142532 0.0025894314 364 130
-0.027916292 0.013174034 0.15408392 0.0026875869 351 126
-0.026862182 0.013012035 0.15225691 0.0027506202 336 120
-0.02597711 0.012929784 0.15130667 0.002735036 341 122
-0.025290817 0.012939379 0.1514768 0.0026269706 360 129
-0.024578029 0.01294001 0.15149166 0.0025332377 387 138
-0.024006443 0.013014516 0.15241729 0.0025303175 391 140
-0.023188422 0.012960311 0.15178047 0.0024980404 395 141
-0.022547357 0.012999386 0.15229131 0.0025416131 385 138
-0.021795778 0.012979614 0.15204825 0.0024997066 396 142
-0.021121835 0.013003852 0.15237592 0.0025237165 382 137
-0.020468367 0.013047226 0.15287268 0.002530827 377 135
-0.019648084 0.012978164 0.1520977 0.0023405687 425 152
-0.018801372 0.012885444 0.15104499 0.002192463 469 168
-0.018000221 0.012822203 0.15027845 0.0020994719 502 180
-0.017534688 0.012997182 0.15235873 0.0021678214 469 168
-0.016632197 0.012852575 0.15068808 0.0022666699 446 160
-0.016026841 0.012934515 0.15166874 0.0025107856 383 137
-0.015364253 0.012979982 0.15216231 0.0024416503 402 144
-0.014499463 0.012845162 0.15059702 0.0023710439 414 148
-0.013853198 0.01289957 0.15124547 0.002405365 408 146
-0.013164395 0.012922163 0.15152097 0.0024017766 404 145
-0.012532471 0.013005837 0.15250808 0.00232935 427 153
-0.011793622 0.012976256 0.15216249 0.0022769135 444 159
-0.011048017 0.012939833 0.15173201 0.0022264766 457 164
-0.010304234 0.012895385 0.1512619 0.0021493621 482 173
-0.0095847212 0.012887877 0.1511658 0.0021773418 464 166
-0.008893922 0.012913379 0.15145224 0.0022359113 450 161
-0.0082052117 0.012945794 0.15181503 0.0023401317 421 151
-0.0075562606 0.013055566 0.1531399 0.0025263662 381 136
-0.0067541269 0.012900568 0.15129986 0.0024290939 400 143
-0.0060565397 0.012916593 0.15152031 0.0025356947 376 135
-0.0053680986 0.012974848 0.1521723 0.0025918658 368 132
-0.0046748151 0.013031399 0.15285896 0.0026169019 357 128
-0.003965911 0.013056999 0.15318272 0.0025324759 376 135
-0.0032736 0.01316536 0.15441269 0.0026230779 359 128
-0.0025302179 0.013064185 0.15324013 0.0026080641 366 131
-0.001794044 0.012934779 0.15173151 0.0026339605 361 129
-0.0010829858 0.012935406 0.15174815 0.0026444159 352 126
-0.00037024796 0.012880001 0.15109819 0.0025200266 386 138
0.00033279936 0.012687406 0.14884338 0.0025876798 364 130
0.0010322786 0.012711643 0.14912315 0.0026245967 361 129
0.0017376447 0.012759539 0.14967585 0.0026365507 350 125
0.0024733774 0.012938739 0.15176867 0.0027725601 328 117
0.0032243407 0.013099766 0.15364335 0.0029346189 311 111
0.0039394307 0.013078159 0.15343095 0.0028910439 313 112
0.004672409 0.013116692 0.15386418 0.002860924 311 111
0.0053928485 0.013109714 0.15381403 0.0027072986 340 122
0.0060768891 0.013029939 0.15284994 0.0025490131 365 131
0.0067356811 0.01292284 0.15162024 0.0026719333 345 123
0.0073578148 0.012768243 0.14977424 0.002896609 306 109
0.008065694 0.012779113 0.1499189 0.0031008127 285 102
0.0088462615 0.012886687 0.15119359 0.0031297831 286 102
0.0095484983 0.012882821 0.15110651 0.0028608823 320 114
0.010216002 0.012831226 0.15050931 0.0028335578 325 116
0.010955703 0.012870518 0.15097822 0.0028249777 328 117
0.011656337 0.012861367 0.15086962 0.0028644812 320 114
0.012392261 0.012889439 0.15119767 0.0032629631 261 93
0.012979129 0.01277187 0.14981729 0.0039926982 197 70
0.013618538 0.012710636 0.14908861 0.0047093616 157 56
0.014257819 0.012658897 0.14847137 0.0044091777 169 60
0.015060126 0.012749556 0.14951962 0.0041184658 184 66
0.015744418 0.012736281 0.14934888 0.0034087342 245 87
0.016448386 0.012737947 0.14940272 0.0030591202 275 98
0.017350513 0.012887089 0.15112744 0.0028069781 317 113
0.018013567 0.012856871 0.1507439 0.0026861636 333 119
0.018654242 0.012808566 0.1502028 0.0026527974 350 125
0.019406602 0.012841647 0.15055692 0.0025957092 360 129
0.020356921 0.012998489 0.1523615 0.0026696008 350 125
0.021270584 0.013117018 0.1537672 0.0026681279 355 127
0.021949135 0.013094465 0.15345877 0.0026367374 360 129
0.022568053 0.013033856 0.15275528 0.0026404941 359 128
0.023238346 0.013009883 0.15242578 0.0026783205 349 125
0.023846565 0.012948638 0.15171024 0.0025867566 366 131
0.024959048 0.01316353 0.15417403 0.0025576612 372 133
0.02569605 0.013166414 0.15420024 0.0025931729 358 128
0.026544809 0.01322668 0.15489846 0.0025774075 367 131
0.027162649 0.013176018 0.15424144 0.0025141109 382 137
0.027632026 0.013055062 0.15281318 0.0023687116 419 150
0.02827266 0.013021179 0.152344 0.0023262724 426 153
0.028850479 0.012957905 0.15158197 0.0023740241 416 149
0.029641705 0.012990766 0.15194455 0.0024819192 389 139
0.030256495 0.012950858 0.15139595 0.0027000888 346 124
0.030923022 0.012929469 0.15111938 0.002762808 336 120
0.031731319 0.012968494 0.15153933 0.0026982648 339 121
0.032662138 0.013052438 0.15248859 0.0027890615 332 119
0.033710063 0.013184808 0.15393697 0.0027890068 332 119
0.03355632 0.01284655 0.149947 0.0028401166 324 116
0.034372766 0.012885654 0.15035783 0.0028318805 328 117
0.035807379 0.01315639 0.15341401 0.0028872606 309 110
0.036533233 0.013154475 0.1533353 0.0030203881 291 104
0.036988981 0.013063398 0.15216653 0.0031297822 270 96
0.037531674 0.012999264 0.1513588 0.0033496215 251 90
0.038063824 0.012935232 0.15055279 0.0033835422 252 90
0.038623668 0.012887196 0.14987348 0.0035222124 233 83
0.039323781 0.012881929 0.14974234 0.0033607092 244 87
0.040423781 0.013009953 0.15110418 0.0030330822 283 101
0.041105825 0.012997927 0.15088898 0.0029869883 279 100
0.041927874 0.013032805 0.15115748 0.0030511334 275 98
0.042772222 0.013068354 0.15148878 0.0029902745 288 103
0.043471802 0.013065163 0.15131001 0.0029456716 293 105
0.044256091 0.013080714 0.15139912 0.0029240542 293 105
0.044763274 0.013021081 0.15056257 0.0028797279 300 107
0.04538865 0.012990827 0.15011728 0.0029859326 289 103
0.045919847 0.01294083 0.14938428 0.0029211279 297 106
0.04668792 0.012956617 0.14940615 0.0028557878 306 109
0.047975831 0.013115206 0.15107241 0.0028994726 305 109
0.048588403 0.013082239 0.15058142 0.0029522283 288 103
0.049372211 0.013098947 0.15060151 0.0030109168 288 103
0.050386969 0.013175426 0.15130253 0.002814783 314 112
0.051674627 0.013321207 0.15279627 0.0028484748 313 112
0.052870926 0.013438298 0.15394726 0.0028123625 317 113
0.053607598 0.0134368 0.15373793 0.0027029244 339 121
0.054205786 0.013402201 0.15315025 0.0025207563 376 135
0.055177841 0.013458377 0.1535894 0.0025568141 367 131
0.056026615 0.013483251 0.15366998 0.0026560216 347 124
0.056790832 0.013492271 0.15350215 0.0027539518 334 119
0.057907205 0.01357744 0.15425608 0.0030915027 285 102
0.058704879 0.013587689 0.1541521 0.002980913 296 106
0.059473097 0.013590818 0.15396693 0.0029141209 312 112
0.060405921 0.013634813 0.15417631 0.0030154914 293 105
0.061031953 0.013605398 0.15361243 0.0031117536 289 103
0.061890349 0.013626628 0.15361525 0.003173382 279 100
0.062646784 0.013630114 0.15335527 0.0032764093 273 98
0.063110031 0.013566511 0.15239343 0.0033267629 265 95
0.064169936 0.013635033 0.15285347 0.0035023852 254 91
0.065049917 0.013659108 0.15286501 0.0034921691 250 89
0.065721668 0.013645429 0.15239683 0.003486308 253 90
0.067029461 0.013756467 0.15337127 0.0035900786 247 88
0.067616545 0.01371967 0.15269078 0.0036890984 237 85
0.06811066 0.013669003 0.15179574 0.0038667214 220 79
0.069048129 0.013703351 0.15190181 0.0040319292 216 77
0.069442786 0.013631286 0.15082376 0.00393586 217 77
0.070166118 0.013629572 0.15046418 0.003951496 210 75
0.071407951 0.013722451 0.15120298 0.0041929763 200 71
0.072052784 0.013700718 0.15067209 0.0042198817 200 71
0.072911955 0.013719662 0.15058327 0.0044991141 182 65
0.07463067 0.01389492 0.15226775 0.0046407487 171 61
0.076087981 0.014024345 0.15337653 0.0048202006 168 60
0.077372938 0.014114371 0.15411223 0.0052415812 147 52
0.076295346 0.013782785 0.15018697 0.0053822524 149 53
0.077614307 0.01388198 0.15102242 0.0057838592 133 47
0.078591779 0.013915175 0.15118861 0.0062645026 119 42
0.077577963 0.013605243 0.14757988 0.0066401386 111 39
0.080329984 0.013950836 0.15113232 0.0067264326 110 39
0.081822112 0.014074588 0.15227975 0.006351409 111 39
0.079397954 0.013531021 0.14621755 0.0072280448 99 35
-0.089020133 0.014602873 0.14893016 0.0037469948 212 76
-0.087166995 0.014426631 0.14701971 0.0037683477 215 77
-0.086157933 0.014385687 0.14654346 0.003472832 237 85
-0.086536057 0.014573552 0.1484618 0.0035576802 231 82
-0.086549707 0.014704918 0.14980471 0.0033671299 242 86
-0.087053455 0.01492483 0.15206045 0.0033758373 247 88
-0.086722665 0.015005654 0.15290476 0.0033729717 251 90
-0.084752314 0.014799453 0.15087809 0.0034448593 240 86
-0.083533391 0.014722301 0.15017588 0.0035702838 231 82
-0.082000069 0.014585774 0.14891966 0.0036157668 228 81
-0.08114206 0.01456942 0.14889376 0.0033811415 253 90
-0.080322742 0.014561251 0.14895605 0.0033744362 251 90
-0.079961099 0.014632997 0.14988934 0.0031981906 265 95
-0.079664037 0.014720642 0.15098724 0.0031090919 278 99
-0.079526499 0.014840453 0.15242273 0.0030489841 291 104
-0.077870488 0.014672911 0.15095927 0.0029371688 295 105
-0.076875061 0.014629539 0.15076926 0.0027805509 330 118
-0.076093383 0.014627167 0.15100065 0.0027441997 338 121
-0.075523131 0.014667608 0.15167429 0.0027074318 342 122
-0.076147623 0.014944171 0.15478948 0.0026931481 353 126
-0.07388711 0.01465003 0.1520465 0.002620856 369 132
-0.073332466 0.014691412 0.15278031 0.0026125095 362 130
-0.072425611 0.014664347 0.15280239 0.0025529605 376 135
-0.071743511 0.014682586 0.15328579 0.0025249301 381 136
-0.070765242 0.014640906 0.15314811 0.0025008463 388 139
-0.069755346 0.014591575 0.15291806 0.0025925972 363 130
-0.068954132 0.014581108 0.15314795 0.0026637926 337 121
-0.068173103 0.014578769 0.15340362 0.002605191 359 128
-0.067634776 0.014625825 0.15423411 0.0026480951 345 123
-0.066454031 0.014537461 0.15357116 0.0026127656 355 127
-0.065688573 0.014538811 0.15385413 0.0025964587 363 130
-0.064850681 0.014518734 0.15395896 0.0026788886 343 123
-0.063731365 0.014440689 0.1533878 0.0028548923 320 114
-0.062565207 0.014343651 0.15266536 0.0028791351 311 111
-0.061901599 0.014367123 0.1531599 0.0028670023 318 114
-0.060512297 0.014214331 0.15182649 0.0030727291 285 102
-0.058574818 0.013932369 0.14904691 0.0052829585 134 48
-0.056370944 0.013574146 0.14548713 0.013583571 49 17
-0.054364212 0.013259677 0.14232801 0.021982007 27 9
-0.055589691 0.013735516 0.14764956 0.022398164 25 8
-0.052846517 0.013230244 0.14242406 0.016637979 40 14
-0.048671365 0.012343683 0.13311031 0.015913717 42 15
-0.04648513 0.011947918 0.12901986 0.014663619 45 16
-0.046686362 0.012164366 0.13153335 0.015649095 39 14
-0.045977686 0.01214521 0.13149771 0.016314127 39 14
-0.044102781 0.011813022 0.12806362 0.013361186 51 18
-0.043136578 0.011719257 0.12720825 0.01407911 48 17
-0.044611104 0.012294161 0.13361323 0.012049711 55 19
-0.044030998 0.012311227 0.13395911 0.011284029 59 21
-0.043010958 0.012203845 0.1329453 0.010321137 66 23
-0.04186241 0.012060331 0.13148424 0.0094739702 71 25
-0.041679863 0.012190442 0.13305265 0.0091763549 73 26
-0.041486293 0.012321167 0.13462654 0.0089861732 74 26
-0.04035563 0.012173181 0.13315056 0.010787547 64 22
-0.038181417 0.011704654 0.12811232 0.0086779576 82 29
-0.038256619 0.011915859 0.13055764 0.008927892 82 29
-0.037829373 0.011980279 0.13134757 0.0090988064 83 29
-0.037460417 0.012061167 0.13236098 0.0066987481 114 40
-0.037250929 0.012201129 0.1339781 0.0067721815 110 39
-0.036858611 0.012280488 0.13497393 0.0058376882 129 46
-0.036303204 0.012312939 0.13540369 0.0055545419 142 51
-0.035145771 0.012132652 0.13353531 0.0052163959 156 56
-0.034844633 0.0122509 0.13490504 0.0055656098 145 52
-0.034667794 0.012415023 0.1368247 0.0054494026 147 52
-0.034610052 0.012631438 0.13927115 0.0047372542 174 62
-0.034213349 0.012731475 0.14043593 0.0052775019 160 57
-0.03315156 0.012576691 0.13883336 0.0058503621 131 47
-0.033338778 0.012905044 0.14251152 0.0064318022 113 40
-0.034582738 0.01366419 0.15095134 0.0060714926 117 42
-0.034558423 0.013938515 0.15408809 0.0046393275 156 56
-0.033729587 0.013899714 0.15370683 0.0038262312 207 74
-0.032868739 0.013843258 0.15312995 0.0032532206 260 93
-0.031873737 0.013728104 0.15189834 0.0028771781 303 108
-0.031044874 0.013675655 0.15140769 0.0026404758 361 129
-0.030506209 0.013756114 0.15233588 0.0025834874 366 131
-0.02959206 0.013666599 0.15137695 0.0025890099 363 130
-0.0287365 0.013595209 0.15066573 0.002509478 385 138
-0.028001985 0.013585679 0.15058751 0.0025378137 381 136
-0.0277432 0.01380963 0.15309289 0.0026128362 361 129
-0.026992779 0.013791444 0.15296225 0.0027548154 339 121
-0.025978494 0.01363824 0.151281 0.0027301579 346 124
-0.025188254 0.013599314 0.15086241 0.0027252529 340 122
-0.024642156 0.013685896 0.15188374 0.0026510914 364 130
-0.023892621 0.013668386 0.15169321 0.0025956677 369 132
-0.023367686 0.013781672 0.1529543 0.0026229776 368 132
-0.022600869 0.013749651 0.15265515 0.002620796 368 132
-0.021839963 0.013723666 0.15236099 0.0025472797 379 136
-0.021105971 0.01370805 0.15223424 0.0024627179 397 142
-0.020395968 0.013715017 0.15230589 0.0025007275 381 136
-0.019757347 0.013766837 0.15291867 0.0025213161 382 137
-0.018825075 0.013609893 0.15121222 0.0023093924 424 152
-0.017943434 0.013482999 0.14978284 0.0021415427 487 174
-0.017264744 0.013502687 0.15003346 0.0021978447 464 166
-0.01670512 0.013616935 0.15133038 0.0021783991 470 168
-0.016009927 0.013634109 0.15149218 0.0023225916 434 155
-0.015325042 0.013656533 0.15175951 0.002519381 386 138
-0.01464046 0.013680967 0.15204923 0.0024823435 391 140
-0.013800346 0.013559211 0.15070942 0.0024588292 408 146
-0.013177514 0.013643975 0.15166503 0.002403002 415 149
-0.012425563 0.013601646 0.15119861 0.002325872 433 155
-0.011804991 0.013700718 0.15230404 0.0023109969 431 154
-0.011111538 0.013727672 0.15260784 0.0022405759 448 160
-0.010391148 0.013722125 0.15254092 0.0022417801 449 161
-0.0096258959 0.013651441 0.15174997 0.002291772 433 155
-0.0089080585 0.013648467 0.15171173 0.0022058333 460 165
-0.0082332827 0.013703437 0.15236014 0.002246618 447 160
-0.0074698809 0.013620455 0.15142302 0.0021822676 466 167
-0.0067427638 0.013582779 0.15098511 0.0021910642 469 168
-0.0060232608 0.013558115 0.15073869 0.0022897036 441 158
-0.0053285914 0.013594858 0.15112348 0.0023881528 415 149
-0.004622228 0.013588795 0.15107925 0.0024008814 408 146
-0.0039515649 0.013720581 0.15256314 0.0025103418 387 138
-0.0032350826 0.013721052 0.15253508 0.0025348694 386 138
-0.0025067304 0.01364982 0.15175717 0.0025195458 383 137
-0.0017886802 0.013600457 0.15121761 0.0025142457 387 138
-0.0010799892 0.013604157 0.15126339 0.0025366764 380 136
-0.00037128592 0.013621552 0.15146145 0.002592016 360 129
0.00033289773 0.013384312 0.14882353 0.002537125 378 135
0.001027722 0.013346745 0.14840579 0.0025828925 372 133
0.0017431631 0.013499166 0.15009141 0.0027085899 338 121
0.0025158487 0.013879729 0.15431327 0.0027192314 341 122
0.0032129418 0.01376171 0.15303922 0.0027992171 325 116
0.0039161514 0.013711204 0.15246354 0.0028178892 325 116
0.0046422346 0.013744012 0.15280494 0.0028519752 318 114
0.0053972658 0.013849678 0.1540086 0.0027812137 325 116
0.0060858126 0.013772909 0.15313144 0.0028012807 324 116
0.0067258785 0.013609577 0.15133458 0.0029071523 302 108
0.0072686528 0.013311488 0.14798814 0.0030344182 289 103
0.0080297459 0.013418007 0.1491912 0.0030810479 284 102
0.0088301999 0.013574231 0.15093805 0.0030906824 284 102
0.0095404005 0.01357815 0.15099144 0.0029966373 293 105
0.010204983 0.013520448 0.15035497 0.0029796157 301 108
0.010944046 0.01356654 0.15081656 0.002899098 313 112
0.011755428 0.013686611 0.1521519 0.0028634609 315 113
