# .PCD v0.7 - Point Cloud Data file format
VERSION 0.7
FIELDS x y z noise intensity gray
SIZE 4 4 4 4 2 1
TYPE F F F F U U
COUNT 1 1 1 1 1 1
WIDTH 990
HEIGHT 1
VIEWPOINT 0 0 0 1 0 0 0
POINTS 990
DATA ascii
0.22649944 0.017709143 0.49975973 0.0066586058 86 255
0.22907817 0.017720699 0.49897936 0.0053433008 116 255
0.23220164 0.017756892 0.49934533 0.0046794228 133 255
0.23319389 0.01764873 0.49518394 0.0044423486 136 255
0.23484243 0.017591942 0.49245775 0.004334941 146 255
0.23701692 0.017559892 0.49087802 0.0042631482 146 255
0.23799334 0.017456928 0.48685801 0.0042877565 147 255
0.23911843 0.017352715 0.48325828 0.0043170974 145 255
0.24111968 0.017329708 0.48146662 0.004498031 147 255
0.24417093 0.017366564 0.48179433 0.0045788963 135 255
0.2475486 0.017427633 0.48277193 0.0053275633 122 255
0.24856195 0.017323516 0.4791905 0.0053420258 115 255
0.2498197 0.017240269 0.4761762 0.0055605494 114 255
0.25030068 0.017106352 0.47178638 0.0057304516 106 255
0.2515946 0.017031919 0.46902785 0.0059576849 100 255
0.25400704 0.017035767 0.46844295 0.006226771 96 255
-1.2671945 0.088354565 2.1185496 0.053868279 6 26
-1.2335991 0.086763971 2.0796769 0.046246655 10 44
-1.1912458 0.084535398 2.0256202 0.046144307 10 44
-1.1800523 0.084437668 2.0243573 0.042419896 10 44
-1.1868913 0.085725158 2.0547225 0.042927485 13 58
-1.1808877 0.086039841 2.0635767 0.043195523 9 40
-1.1467283 0.084369428 2.0231619 0.044718999 14 62
-1.128462 0.083793201 2.0106845 0.032496586 13 58
-1.1270528 0.084472269 2.0284681 0.034958802 12 53
-1.123567 0.084954709 2.0432568 0.042318765 13 58
-1.1130593 0.084985361 2.0455513 0.031675097 15 67
-1.1023164 0.084941074 2.0477476 0.033272907 17 76
-1.1005385 0.085674524 2.0670588 0.032074161 16 71
-1.0877331 0.085492752 2.0659442 0.028966043 15 67
-1.0751829 0.085331976 2.0653894 0.030895278 15 67
-1.0638969 0.085285015 2.0675759 0.028934166 20 89
-1.0468144 0.084766299 2.0582979 0.024617827 21 93
-1.0307256 0.084328271 2.0509365 0.023607006 22 98
-1.0174544 0.084048457 2.0490217 0.026401084 25 111
-1.0080442 0.084166795 2.0551658 0.023768332 21 93
-1.0002136 0.084349461 2.06446 0.023097856 20 89
-0.98372155 0.083867587 2.0558348 0.024511766 19 85
-0.96729451 0.083321884 2.0471601 0.032988179 17 76
-0.95608443 0.08328791 2.0493245 0.029373948 18 80
-0.94522345 0.083213344 2.0521817 0.026228445 18 80
-0.9290427 0.082738474 2.0433044 0.029543843 20 89
-0.91349703 0.082239948 2.0354898 0.027178921 16 71
-0.90592468 0.082456157 2.0452816 0.034145266 15 67
-0.90044075 0.082869388 2.0599942 0.050834335 11 49
-0.91693473 0.085408069 2.1257982 0.047572918 8 35
nan nan nan 0 6 26
-0.87195766 0.083095998 2.0768497 0.047971375 11 49
-0.85696518 0.082687221 2.0690956 0.062416166 9 40
nan nan nan 0 1 4
nan nan nan 0 5 22
nan nan nan 0 6 26
nan nan nan 0 6 26
nan nan nan 0 6 26
nan nan nan 0 7 31
nan nan nan 0 7 31
nan nan nan 0 5 22
-0.74896115 0.080925465 2.0540512 0.04390185 11 49
nan nan nan 0 5 22
-0.72742993 0.080751583 2.0549381 0.064303197 7 31
-0.72843933 0.081951112 2.0888414 0.056478977 10 44
-0.72876096 0.083173439 2.1217446 0.062434137 6 26
-0.71414596 0.082699895 2.1112638 0.065038584 7 31
nan nan nan 0 5 22
nan nan nan 0 6 26
nan nan nan 0 7 31
nan nan nan 0 5 22
nan nan nan 0 8 35
-0.64044297 0.08105357 2.0827706 0.057697881 7 31
-0.62540829 0.080419064 2.0676737 0.065680996 9 40
-0.60675997 0.079233035 2.0399745 0.064349867 9 40
-0.6100654 0.080988012 2.0863042 0.064093269 7 31
-0.59215754 0.079927519 2.0600483 0.037749469 14 62
-0.58792198 0.080714606 2.0813403 0.04572352 9 40
-0.57524276 0.080281705 2.072871 0.035543155 10 44
-0.56095684 0.079671383 2.0580361 0.026081629 20 89
-0.5485037 0.079301737 2.049341 0.027440539 21 93
-0.53698891 0.079054371 2.0437331 0.025964528 21 93
-0.52820104 0.079139709 2.0483942 0.024110146 21 93
-0.52013588 0.07940314 2.0559325 0.025773738 25 111
-0.51196128 0.079657175 2.0631664 0.028261291 19 85
-0.50469977 0.080073811 2.074616 0.028184565 20 89
-0.49413303 0.079969645 2.0725088 0.026684662 17 76
-0.48282164 0.079660058 2.0666893 0.025912769 23 102
-0.47199041 0.079494491 2.0629141 0.026468648 21 93
-0.46227816 0.07951159 2.0638134 0.021398524 21 93
-0.4520334 0.079444386 2.0625234 0.021066714 26 116
-0.44137523 0.079285495 2.0587223 0.022762835 24 107
-0.43184596 0.079271413 2.0603495 0.019279443 25 111
-0.42220539 0.079288006 2.0611024 0.023754163 23 102
-0.4125095 0.079304054 2.0617127 0.023382848 26 116
-0.3988449 0.078548811 2.0423326 0.019376954 27 120
-0.39013174 0.078739263 2.0474119 0.023861477 23 102
-0.37994498 0.078580827 2.0450709 0.020884342 26 116
-0.36960948 0.078432724 2.0412781 0.018631838 31 138
-0.36269861 0.079033345 2.0569081 0.021561835 29 129
-0.353421 0.07914792 2.0598884 0.019344101 27 120
-0.34444571 0.079320304 2.0643094 0.020042373 28 125
-0.33335453 0.078949034 2.056174 0.021677105 27 120
-0.32311311 0.078826658 2.0528569 0.019560991 28 125
-0.313999 0.078976274 2.05656 0.022605816 24 107
-0.30465972 0.079072952 2.0588844 0.018044721 31 138
-0.29381746 0.078722581 2.0510902 0.021115767 26 116
-0.28277948 0.078340106 2.04087 0.019663401 29 129
-0.27557281 0.079043217 2.0588028 0.021056958 26 116
-0.26739222 0.079439849 2.0704088 0.0193404 29 129
-0.25770745 0.079485826 2.0711572 0.021024371 26 116
-0.24694094 0.079163186 2.0622389 0.021858077 22 98
-0.23577316 0.078633055 2.0495629 0.02000596 21 93
-0.22598371 0.078600295 2.0481386 0.019775206 26 116
-0.21656094 0.078692205 2.0499003 0.021925189 26 116
-0.20729695 0.078784198 2.0533051 0.022760125 21 93
-0.19739728 0.078719795 2.0509305 0.019713057 29 129
-0.18774872 0.078684643 2.0508952 0.022420049 24 107
-0.17891146 0.079039223 2.0593126 0.020713588 23 102
-0.16963664 0.07918907 2.064039 0.025719495 19 85
-0.1601764 0.079359837 2.0675993 0.02625636 19 85
-0.14979787 0.078963704 2.0580349 0.025484035 20 89
-0.13994591 0.078809984 2.0546575 0.020387111 23 102
-0.13049881 0.078979492 2.0580645 0.021487953 24 107
-0.12093339 0.079025783 2.0599008 0.01852181 29 129
-0.11126468 0.079006739 2.0599086 0.023323426 23 102
-0.10117631 0.07872057 2.0513136 0.021770062 26 116
-0.091169693 0.07836847 2.0425758 0.025875175 22 98
-0.082183518 0.078913786 2.0572288 0.021416819 25 111
-0.072911806 0.079356343 2.0674982 0.019693209 23 102
-0.063251667 0.079364724 2.0680325 0.022029156 22 98
-0.053550549 0.079409078 2.0694408 0.02124881 24 107
-0.043894112 0.079439491 2.0704868 0.02199625 24 107
-0.03377654 0.078416511 2.0439489 0.020346645 24 107
-0.024167325 0.078434527 2.0446057 0.019226655 24 107
-0.014666998 0.078725427 2.0522516 0.019770065 25 111
-0.0049981452 0.078470878 2.0456784 0.022404775 23 102
0.0045441361 0.078184038 2.0382006 0.02251954 26 116
0.014173202 0.078420892 2.0443127 0.021552959 26 116
0.023759721 0.07853213 2.0471501 0.025321206 21 93
0.033506878 0.078810185 2.0542729 0.02135157 25 111
0.043089651 0.078778163 2.0532501 0.02144607 24 107
0.0523027 0.078111999 2.0356383 0.021418218 25 111
0.062053837 0.078410082 2.0431569 0.020248938 26 116
0.071560264 0.078298286 2.0415576 0.021576922 27 120
0.081255183 0.078442499 2.0449429 0.021030333 26 116
0.090972565 0.078521706 2.0466323 0.019802371 25 111
0.10058163 0.078550063 2.0469332 0.024013015 25 111
0.11017253 0.07854256 2.0478687 0.021440849 24 107
0.12068503 0.079152212 2.0631964 0.021774441 25 111
0.13020453 0.079068519 2.0604475 0.023177247 24 107
0.13905239 0.07858938 2.0489688 0.021765985 26 116
0.14811838 0.078309 2.0409713 0.025410421 23 102
0.15809748 0.078484558 2.0464909 0.020450201 25 111
0.1681844 0.078746021 2.0525541 0.02316932 23 102
0.17819495 0.078882486 2.0569348 0.023603953 23 102
0.188115 0.079023466 2.0597265 0.025196185 21 93
0.19674923 0.078599088 2.0494239 0.021723293 24 107
0.20546693 0.078279085 2.0401406 0.022950437 24 107
0.21582775 0.078545697 2.0477853 0.023463005 22 98
0.22634599 0.078902073 2.0560656 0.021394759 23 102
0.23520492 0.078611605 2.049067 0.023123132 22 98
0.24456117 0.078518994 2.0471609 0.022645615 24 107
0.25408453 0.078523777 2.0461519 0.022521898 23 102
0.26350075 0.078452073 2.044728 0.019669309 24 107
0.27317932 0.078456342 2.0452213 0.022029465 23 102
0.28351519 0.078701541 2.050349 0.021529669 24 107
0.29266351 0.078565687 2.0471287 0.024024872 25 111
0.30248082 0.078608334 2.0484965 0.020503838 26 116
0.31140825 0.078404434 2.0434391 0.017765336 26 116
0.32019523 0.078268543 2.0384481 0.019420039 24 107
0.33037493 0.078392975 2.0418181 0.020803137 26 116
0.34099275 0.078607738 2.0475414 0.021670301 24 107
0.34987387 0.078432016 2.0430305 0.02119996 27 120
0.35987753 0.078507207 2.0449922 0.023035023 24 107
0.36940363 0.078537129 2.044122 0.023321329 25 111
0.379069 0.07854411 2.0442424 0.026015578 21 93
0.38839069 0.078465328 2.0420666 0.022256549 23 102
0.39872906 0.07860022 2.0454512 0.02056092 27 120
0.41540077 0.079944566 2.0802431 0.022730691 23 102
0.41846144 0.078740694 2.0470026 0.02045778 28 125
0.4256604 0.078275807 2.0346632 0.025240125 21 93
0.43464401 0.078161061 2.0313628 0.024041396 23 102
0.44780424 0.078783341 2.0471509 0.026867298 19 85
0.46398437 0.079896517 2.0756855 0.025300043 22 98
0.46925244 0.079120755 2.0550797 0.025372988 21 93
0.47448477 0.078431979 2.0350833 0.022376681 26 116
0.48694059 0.078886941 2.0463068 0.01915882 27 120
0.50111467 0.079584226 2.0638711 0.020531898 24 107
0.50876099 0.079245463 2.0544353 0.021397853 27 120
0.51627123 0.078896239 2.044733 0.01985657 25 111
0.5267688 0.079070188 2.0468528 0.01958669 27 120
0.53396934 0.078687504 2.0361679 0.022139585 27 120
0.5430671 0.078600131 2.0331275 0.020096496 23 102
0.55569679 0.079006568 2.0427918 0.018108614 28 125
0.56612587 0.079098254 2.0442462 0.019782739 27 120
0.57329488 0.07879255 2.0337641 0.019161241 26 116
0.58364052 0.078870341 2.0347903 0.019456375 26 116
0.59505683 0.079085723 2.0392957 0.021651568 24 107
0.60554409 0.079162039 2.0402098 0.022477452 22 98
0.61577821 0.079274692 2.0403144 0.019547492 32 143
0.62432313 0.079104766 2.034754 0.018429976 30 134
0.64472097 0.080416523 2.0672204 0.019731903 31 138
0.65310091 0.08027602 2.060638 0.017529177 30 134
0.65747255 0.079580508 2.0414529 0.017936548 30 134
0.66972554 0.079917163 2.0469975 0.018682878 27 120
0.68237042 0.080224454 2.0534554 0.021807795 28 125
0.69271868 0.080254801 2.0526836 0.018994652 28 125
0.7025817 0.080285594 2.0502281 0.018263724 30 134
0.71361786 0.080388963 2.0512452 0.0163447 32 143
0.72456187 0.080536403 2.0516849 0.018768039 29 129
0.73420352 0.08047796 2.0484333 0.021260813 25 111
0.74714267 0.080835328 2.0540583 0.018274738 29 129
0.7572158 0.080810651 2.0515888 0.019717352 27 120
nan nan nan 0 2 8
nan nan nan 0 5 22
0.186877 0.019190883 0.4850103 0.034283441 10 44
0.19611676 0.01989471 0.50187659 0.064918593 8 35
0.19950211 0.019978326 0.50346041 0.041976433 12 53
0.19248618 0.019045236 0.47903186 0.042957455 11 49
nan nan nan 0 17 76
0.20447098 0.019743718 0.49506512 0.026750734 19 85
0.20610718 0.019673498 0.49232644 0.035588671 16 71
0.20592071 0.019431343 0.48526838 0.030480947 17 76
0.20540433 0.019147998 0.47760436 0.021563642 21 93
0.21947873 0.020233247 0.50361657 0.024470441 22 98
0.2218799 0.020228848 0.50243354 0.032154988 15 67
0.22652404 0.020411385 0.5062871 0.022615124 21 93
0.22786747 0.020310696 0.50269395 0.0086824056 62 255
0.23048629 0.02032611 0.50196218 0.0058190329 97 255
0.23256375 0.020278588 0.50007606 0.0048447428 127 255
0.23384278 0.020178221 0.49647808 0.0044164755 144 255
0.23505799 0.02006064 0.4928447 0.0042232433 148 255
0.23805022 0.020110564 0.4929345 0.0043213372 150 255
0.24066296 0.020113816 0.49225301 0.004342414 142 255
0.24098831 0.01994409 0.48695436 0.0045701806 143 255
0.24239354 0.019852335 0.48396057 0.0044298624 141 255
0.24413106 0.019789061 0.48166573 0.0045984616 131 255
0.24595602 0.019736398 0.47961587 0.0049128938 124 255
0.24909751 0.019790361 0.48017225 0.0051509789 114 255
0.24982516 0.019655628 0.47613585 0.0055113076 106 255
0.25098184 0.019557877 0.47300297 0.0057578688 104 255
0.25235361 0.019480787 0.47039172 0.0060097482 103 255
0.25006646 0.019112645 0.46115464 0.0062079057 96 255
-1.2295053 0.096276857 2.0556133 0.05819178 8 35
-1.2185063 0.096222833 2.0542371 0.0636774 10 44
-1.1848226 0.094374619 2.0147052 0.044503156 13 58
-1.1830915 0.095074974 2.0295818 0.043079842 10 44
-1.186468 0.09621577 2.054004 0.04358317 12 53
-1.1766586 0.096306279 2.0560775 0.045078117 12 53
-1.1558651 0.095439054 2.0393028 0.041311942 11 49
-1.1348982 0.094622068 2.0220509 0.037444238 16 71
-1.1338129 0.095399432 2.0405352 0.043681022 14 62
-1.1340131 0.096315995 2.0620248 0.031679746 17 76
-1.1251068 0.096484981 2.0675249 0.029701626 16 71
-1.1088171 0.095949829 2.0595276 0.032597873 16 71
-1.1019623 0.096317865 2.0694377 0.030870592 16 71
-1.0960537 0.096714847 2.0815248 0.030730085 17 76
-1.0851779 0.096681967 2.0842967 0.028996147 16 71
-1.0672497 0.0960254 2.0736642 0.02970292 15 67
-1.0489452 0.09533295 2.0622022 0.034416523 17 76
-1.0329792 0.094846092 2.0551391 0.032865379 16 71
-1.021324 0.09475407 2.056535 0.029828092 15 67
-1.0257545 0.096173376 2.090775 0.02847877 18 80
-1.0090622 0.095555931 2.0822992 0.027599424 17 76
-0.99013656 0.094789125 2.068897 0.02877228 21 93
-0.97224826 0.094034731 2.0572271 0.031670149 19 85
-0.95899707 0.093793854 2.0551522 0.031050127 18 80
-0.94270533 0.093176372 2.0462329 0.045069423 11 49
-0.92626613 0.092606112 2.0367877 0.05583524 8 35
-0.91009092 0.091979802 2.0274928 0.069900095 5 22
nan nan nan 0 5 22
nan nan nan 0 6 26
nan nan nan 0 7 31
nan nan nan 0 7 31
nan nan nan 0 6 26
nan nan nan 0 2 8
nan nan nan 0 4 17
nan nan nan 0 3 13
nan nan nan 0 4 17
nan nan nan 0 5 22
nan nan nan 0 5 22
nan nan nan 0 3 13
nan nan nan 0 10 44
nan nan nan 0 8 35
nan nan nan 0 7 31
nan nan nan 0 8 35
nan nan nan 0 4 17
nan nan nan 0 6 26
nan nan nan 0 6 26
-0.70876837 0.092075035 2.0949605 0.065584615 6 26
nan nan nan 0 8 35
-0.68386102 0.091431722 2.085233 0.053407233 11 49
-0.67167819 0.09116444 2.0807533 0.066945828 9 40
-0.65910816 0.090824351 2.0745983 0.061293215 6 26
-0.64960158 0.090843141 2.0780201 0.067315556 5 22
-0.63480103 0.09017697 2.0642412 0.055543579 9 40
-0.62055874 0.089558437 2.0514643 0.051387522 10 44
-0.6114592 0.089681551 2.0556662 0.038435426 15 67
-0.60377026 0.089941397 2.0643818 0.027909618 18 80
-0.60262138 0.09127599 2.096283 0.031562306 17 76
-0.58563381 0.090213932 2.0730779 0.031670414 17 76
-0.57497549 0.090104662 2.0717506 0.024314033 21 93
-0.56160593 0.089556895 2.0602653 0.025991594 22 98
-0.5493983 0.089100376 2.0522938 0.029695766 19 85
-0.54544044 0.09007635 2.0757549 0.029744219 20 89
-0.53287214 0.089626819 2.0663707 0.023470156 21 93
-0.52149409 0.089361876 2.061168 0.031071246 20 89
-0.51632553 0.0901687 2.0806248 0.023165297 23 102
-0.50530273 0.089973792 2.0769711 0.023083681 21 93
-0.49566567 0.090008289 2.0785453 0.020022623 25 111
-0.48262903 0.089423746 2.0658181 0.020315951 26 116
-0.4721393 0.089229286 2.0634596 0.023801267 24 107
-0.46161842 0.089085393 2.0607688 0.021472091 23 102
-0.45025456 0.088766314 2.0540216 0.020539638 28 125
-0.44163972 0.088997193 2.0598698 0.018133106 29 129
-0.43179423 0.088982016 2.0600238 0.02180844 25 111
-0.42508653 0.089611083 2.0750949 0.020131541 27 120
-0.41123813 0.088739857 2.0552945 0.021280669 20 89
-0.40048838 0.088522293 2.0506921 0.020338086 25 111
-0.3905558 0.088461399 2.0495894 0.024495205 28 125
-0.37995261 0.0882532 2.0450726 0.021229908 25 111
-0.37050474 0.08822751 2.0461922 0.019728174 25 111
-0.36046103 0.088133834 2.0441976 0.020961758 25 111
-0.35702756 0.089708336 2.080898 0.023039728 24 107
-0.34815401 0.089946248 2.0865333 0.021437507 23 102
-0.33561945 0.089238003 2.0701551 0.022113942 23 102
-0.32425034 0.088785112 2.0596998 0.025609475 22 98
-0.31455085 0.088807613 2.0602093 0.023370514 23 102
-0.30580741 0.08902365 2.0666888 0.021257626 25 111
-0.29477215 0.088628456 2.0573738 0.02194621 26 116
-0.28372511 0.088218108 2.0477085 0.018606173 30 134
-0.27588633 0.088807076 2.0612388 0.019576788 27 120
-0.2679567 0.089404114 2.0748911 0.022087365 22 98
-0.25641292 0.08872661 2.0603728 0.023740679 25 111
-0.24516013 0.088187099 2.0475154 0.020378087 25 111
-0.23453565 0.087833315 2.0389743 0.02233322 24 107
-0.22692181 0.088556394 2.0568345 0.020528145 23 102
-0.21723929 0.08856339 2.0565403 0.020395657 23 102
-0.20702113 0.088336572 2.0507557 0.019963987 25 111
-0.19701543 0.088141792 2.0471764 0.021300396 25 111
-0.18818553 0.088513397 2.0552886 0.019895488 25 111
-0.1798286 0.08912085 2.070219 0.020634899 23 102
-0.17043561 0.089318171 2.0741525 0.030980267 17 76
-0.16062881 0.089238226 2.0730581 0.024732031 21 93
-0.15128919 0.089487851 2.0780783 0.027029326 20 89
-0.14110918 0.089208417 2.0722873 0.02048924 23 102
-0.12989154 0.088203378 2.0481112 0.020713193 25 111
-0.1205001 0.088349998 2.0520811 0.026512103 22 98
-0.11144115 0.088850021 2.0627971 0.022951912 24 107
-0.10143638 0.088544592 2.0562091 0.020003757 27 120
-0.091005735 0.087764435 2.0385284 0.020853035 24 107
-0.082092755 0.088436566 2.05458 0.021331135 25 111
-0.072731636 0.08880318 2.0619481 0.019613378 27 120
-0.063162811 0.088907488 2.0646856 0.019627992 23 102
-0.053550154 0.08908166 2.0690465 0.019626942 26 116
-0.043849375 0.089025602 2.0679338 0.020523651 24 107
-0.034038112 0.088814251 2.0632136 0.018365977 30 134
-0.024306143 0.088494457 2.0559103 0.022149844 24 107
-0.014669351 0.088329554 2.0522046 0.019300243 28 125
-0.0050143595 0.088378087 2.0519385 0.021078276 24 107
0.0045822314 0.088506117 2.0549111 0.021740781 22 98
0.014258839 0.088505305 2.056288 0.020572865 25 111
0.023883877 0.088558905 2.0574074 0.020140851 24 107
0.03354013 0.088498212 2.0558717 0.020817516 21 93
0.043156695 0.088512048 2.0560048 0.023537125 23 102
0.052798618 0.088458084 2.054563 0.023585258 23 102
0.062235046 0.088218488 2.0487475 0.020807715 27 120
0.07184355 0.088254191 2.0492635 0.020371631 26 116
0.081288852 0.08804208 2.0454152 0.021455936 28 125
0.090841018 0.088027634 2.044642 0.019553395 29 129
0.10042249 0.088041633 2.0445292 0.02375737 22 98
0.11003394 0.088014647 2.0448549 0.020771988 30 134
0.11988529 0.088221028 2.0491481 0.020107556 26 116
0.13008042 0.088674009 2.0591025 0.022857152 24 107
0.1393488 0.088373676 2.0529592 0.019390272 27 120
0.14873436 0.088273756 2.0499475 0.023924882 23 102
0.15835643 0.088254966 2.0502791 0.022763992 26 116
0.16831547 0.088471092 2.0545444 0.019676391 24 107
0.17747259 0.088202305 2.0489447 0.022953931 24 107
0.18653806 0.087911621 2.0427704 0.021725088 24 107
0.19621421 0.087979726 2.0434749 0.021602398 23 102
0.20581174 0.08797197 2.0438111 0.022205452 22 98
0.21765915 0.088941455 2.065383 0.021014307 26 116
0.22757314 0.08900892 2.0673449 0.021110274 24 107
0.23692589 0.088855132 2.0642316 0.021218052 23 102
0.24652876 0.088862062 2.0632501 0.022586126 25 111
0.25525409 0.08852268 2.0557003 0.021373123 25 111
0.26417875 0.088270053 2.0501003 0.020410251 29 129
0.27769342 0.089510314 2.0791125 0.021037243 24 107
0.2834062 0.088295817 2.0496387 0.019943789 27 120
0.2928254 0.088233165 2.0483241 0.020359397 25 111
0.30194876 0.088065758 2.0445144 0.020893188 27 120
0.31139016 0.088012554 2.0433559 0.019806491 27 120
0.32167456 0.088189848 2.0474858 0.020484945 27 120
0.33134952 0.088207789 2.047853 0.019359352 26 116
0.34129953 0.08827588 2.0493839 0.02027349 27 120
0.35079131 0.088300891 2.0483775 0.021769881 21 93
0.35697997 0.087451912 2.028507 0.023269346 25 111
0.37038738 0.088366203 2.049536 0.022577206 26 116
0.38158816 0.088732518 2.0577888 0.022144502 24 107
0.39010727 0.088454932 2.0510447 0.020537924 24 107
0.40161088 0.088862181 2.060179 0.02115733 25 111
0.41162696 0.088925801 2.061281 0.023242597 24 107
0.41666585 0.087933138 2.0378377 0.021940881 24 107
0.42609233 0.087900609 2.0366502 0.019237993 29 129
0.43926567 0.088622652 2.0528777 0.021112254 19 85
0.44908223 0.088635497 2.0526083 0.02429899 24 107
0.46419898 0.089746438 2.0762556 0.027729569 21 93
0.47171149 0.089319676 2.0657442 0.02769981 18 80
0.47917712 0.088886902 2.0550988 0.023218181 21 93
0.48941609 0.088973008 2.0563869 0.018650655 27 120
0.50039548 0.089196704 2.0607872 0.019840958 27 120
0.50970364 0.089117177 2.0581148 0.020526633 24 107
0.51898104 0.089032933 2.0553334 0.019912075 27 120
0.52893597 0.08906348 2.0551364 0.019126277 27 120
0.53807062 0.088954963 2.0516655 0.019867709 26 116
0.54991478 0.089298502 2.0586169 0.018799759 27 120
0.55801618 0.089085199 2.0511672 0.019976273 23 102
0.56652951 0.088878818 2.0453796 0.021464113 27 120
0.57599908 0.08883471 2.0431983 0.020005709 27 120
0.58459729 0.088657774 2.0379632 0.022499353 25 111
0.5950458 0.088750832 2.0388687 0.018249439 29 129
0.6048376 0.088816851 2.0376587 0.020142021 30 134
0.61533237 0.088917471 2.0386624 0.017057164 29 129
0.62494189 0.088886991 2.036592 0.019933851 25 111
0.63321149 0.088658698 2.029927 0.021242311 29 129
0.64315033 0.088739537 2.0288525 0.018133661 31 138
0.65640628 0.08920376 2.0379529 0.017731378 29 129
0.67075503 0.089798555 2.0499501 0.017867481 31 138
0.68281829 0.090072498 2.054605 0.017016169 32 143
0.69252044 0.09008719 2.0516994 0.018533796 27 120
0.70206553 0.090023659 2.0485179 0.020280141 27 120
0.71269089 0.090154506 2.0482495 0.018744523 28 125
0.72533453 0.090475552 2.0536618 0.018913027 29 129
0.73693419 0.090716012 2.0556517 0.019268123 27 120
0.74842614 0.090878405 2.0573695 0.018745951 29 129
0.76110613 0.091236062 2.0619082 0.018818282 31 138
0.78952563 0.093378842 2.108175 0.039541986 7 31
nan nan nan 0 9 40
0.1858312 0.021421418 0.48224238 0.050416037 11 49
0.19376951 0.022064716 0.49581385 0.053588953 6 26
0.19699106 0.022143735 0.49702564 0.042425025 13 58
nan nan nan 0 11 49
0.20046334 0.022003261 0.49197412 0.027320433 17 76
0.203456 0.022056395 0.49254939 0.022655481 25 111
0.20510244 0.021978159 0.48981288 0.02206528 23 102
0.20730798 0.021944728 0.48844036 0.022080649 20 89
0.2129333 0.022287546 0.49505016 0.022082616 24 107
0.21279147 0.02202413 0.48817441 0.02270603 23 102
0.21835908 0.02233443 0.49436182 0.026540214 20 89
0.2244484 0.022708343 0.50154728 0.027888229 18 80
0.22897226 0.022917552 0.50506693 0.010483416 54 241
0.23030201 0.022789162 0.50149637 0.0054972386 107 255
0.23256598 0.022771522 0.49997979 0.0044891266 135 255
0.23359792 0.022619752 0.49587655 0.0045684981 146 255
0.23557752 0.022578407 0.49383372 0.0042729639 145 255
0.23845388 0.02260782 0.49370456 0.0043022321 155 255
0.24064092 0.022589894 0.49214175 0.0044342405 144 255
0.24221453 0.022498615 0.48936573 0.0046098544 140 255
0.2440443 0.02243397 0.48715663 0.0045086741 133 255
0.24559571 0.022347998 0.48448867 0.0046768025 132 255
0.24693651 0.022262465 0.4814609 0.005149384 123 255
0.2482959 0.022148693 0.47855997 0.0052003502 121 255
0.24945234 0.02203799 0.47535816 0.0054866867 112 255
0.25087774 0.02195405 0.47275588 0.0055133128 110 255
0.25293547 0.0219141 0.47145551 0.0057722041 104 255
0.2554428 0.021930635 0.47101769 0.0059617697 100 255
nan nan nan 0 5 22
-1.2082922 0.10585853 2.0371435 0.040087741 14 62
-1.2063668 0.1066494 2.051347 0.056498185 10 44
-1.2018033 0.10716718 2.0616922 0.037392884 12 53
-1.1980027 0.10777853 2.073987 0.037871428 11 49
-1.1909539 0.10811538 2.0810013 0.051298238 11 49
-1.1663626 0.10686721 2.0576453 0.048827622 9 40
-1.1451545 0.10592429 2.0401504 0.039475072 13 58
-1.1383773 0.10624855 2.048578 0.03526539 12 53
-1.1366123 0.10706852 2.066509 0.032399308 17 76
-1.1270765 0.10717599 2.0708447 0.03375968 16 71
-1.111069 0.1066821 2.0635467 0.029568495 15 67
-1.1020392 0.10686614 2.0693495 0.027930262 14 62
-1.093483 0.10703272 2.076277 0.036952663 14 62
-1.0800196 0.10680179 2.0740979 0.04116476 11 49
-1.0593436 0.10578586 2.0580158 0.033904471 14 62
-1.0463444 0.10553683 2.0567343 0.041096348 11 49
-1.0360742 0.10556653 2.0609434 0.03396637 16 71
-1.0250576 0.10552581 2.0637722 0.027370567 18 80
-1.0208492 0.10612753 2.0804961 0.031968683 16 71
-1.0158086 0.10673247 2.09587 0.031843774 15 67
-0.99297142 0.10545886 2.0743287 0.043906577 13 58
-0.97663289 0.10479882 2.0661635 0.044960089 6 26
-0.96411562 0.10460895 2.0657828 0.05357527 10 44
nan nan nan 0 4 17
nan nan nan 0 7 31
-0.93198192 0.10448041 2.0757749 0.068675742 6 26
nan nan nan 0 3 13
nan nan nan 0 3 13
nan nan nan 0 6 26
nan nan nan 0 6 26
nan nan nan 0 5 22
-0.84224665 0.10117178 2.0328469 0.065756768 5 22
nan nan nan 0 4 17
-0.82790619 0.10188991 2.0539677 0.066077925 8 35
nan nan nan 0 5 22
-0.79607517 0.10037586 2.031178 0.061207529 10 44
nan nan nan 0 6 26
nan nan nan 0 6 26
nan nan nan 0 7 31
-0.78325599 0.10395617 2.1161423 0.0574499 8 35
nan nan nan 0 3 13
nan nan nan 0 3 13
nan nan nan 0 7 31
-0.71988541 0.10089481 2.0637028 0.056191683 12 53
nan nan nan 0 7 31
-0.69859725 0.10068431 2.0646274 0.058922824 9 40
-0.68832392 0.10059403 2.0660362 0.057007831 9 40
-0.67560291 0.1002046 2.0598569 0.050983638 8 35
nan nan nan 0 7 31
-0.65278262 0.099774584 2.0544343 0.044889715 11 49
-0.64320064 0.099769533 2.0573597 0.036396373 15 67
-0.63253927 0.09964975 2.0564265 0.025796495 20 89
-0.62004179 0.099240705 2.0495791 0.025483254 21 93
-0.61049134 0.099295601 2.0521743 0.030678933 17 76
-0.60521138 0.10004529 2.0691392 0.023781003 22 98
-0.59892642 0.10059368 2.0831964 0.023267111 22 98
-0.58876091 0.10056372 2.0839846 0.031783789 16 71
-0.57592845 0.10006706 2.0749607 0.024586296 21 93
-0.56439614 0.099768981 2.0700424 0.025186367 22 98
-0.55327803 0.099544294 2.0665734 0.024899872 20 89
-0.54210442 0.099298939 2.0626683 0.023623049 20 89
-0.53242946 0.099333845 2.0644505 0.02139429 25 111
-0.52584684 0.09994299 2.0781724 0.019562544 25 111
-0.5093475 0.098652162 2.0523784 0.019116774 31 138
-0.50222641 0.099173158 2.0641389 0.019960977 22 98
-0.49429378 0.099535778 2.0726745 0.019403072 28 125
-0.48457277 0.099556379 2.073961 0.021899395 24 107
-0.4732855 0.099246696 2.0683634 0.019342743 28 125
-0.46260175 0.09905044 2.0650594 0.019576116 25 111
-0.45265305 0.099003732 2.0648057 0.022101957 23 102
-0.44022053 0.098411299 2.053165 0.021090284 22 98
-0.4335719 0.099096619 2.0681174 0.01944318 28 125
-0.42295119 0.098896794 2.0645349 0.02159808 25 111
-0.41251484 0.098728634 2.0616107 0.019797582 22 98
-0.40200582 0.09853147 2.0580137 0.01939082 27 120
-0.39047402 0.098080546 2.0490484 0.020188387 25 111
-0.38068786 0.098036669 2.0485845 0.021033928 23 102
-0.3701455 0.097804219 2.0441146 0.020061798 27 120
-0.36155522 0.098085538 2.0503185 0.020134378 24 107
-0.35748491 0.099638589 2.0831115 0.021946965 25 111
-0.34814122 0.099782817 2.0863914 0.020117689 25 111
-0.33713803 0.099358872 2.0791359 0.024354005 23 102
-0.3246761 0.09855099 2.0623629 0.020183166 25 111
-0.31460443 0.098437257 2.0601146 0.022946442 25 111
-0.3055906 0.098674327 2.0652084 0.019250251 27 120
-0.29460251 0.098243147 2.0562518 0.020271201 27 120
-0.28410378 0.097969003 2.0505185 0.019559147 23 102
-0.27720323 0.098955557 2.0711079 0.022367043 27 120
-0.26701698 0.098793738 2.0676618 0.021639988 24 107
-0.25596768 0.098220155 2.0568604 0.021751046 26 116
-0.24400285 0.097325221 2.037935 0.022744369 24 107
-0.23675911 0.09828572 2.0578613 0.020694857 23 102
-0.22773902 0.09858118 2.0637975 0.020679712 26 116
-0.21749632 0.098281272 2.0585308 0.021497821 24 107
-0.20731635 0.098076336 2.0539267 0.021813244 25 111
-0.19799592 0.098240316 2.0569224 0.025757829 22 98
-0.18865153 0.098371908 2.060626 0.02008022 28 125
-0.18011634 0.099025823 2.0738182 0.018945595 25 111
-0.17060329 0.099179082 2.0765221 0.023402618 19 85
-0.16038933 0.098847546 2.0703421 0.026174126 20 89
-0.15154015 0.099432275 2.0820186 0.026965832 14 62
-0.14127314 0.099030949 2.0742505 0.022156781 25 111
-0.13035557 0.098191544 2.0559797 0.022290999 27 120
-0.12064263 0.098124348 2.055202 0.020731697 25 111
-0.11216385 0.099080183 2.0757298 0.0181948 27 120
-0.10172123 0.098441929 2.0615418 0.023912063 23 102
-0.091514081 0.097844847 2.0494766 0.022390343 22 98
-0.081955612 0.09788271 2.0507088 0.020385304 28 125
-0.072700083 0.098403402 2.0606124 0.020145705 24 107
-0.062645644 0.097852498 2.0493896 0.020497182 27 120
-0.052879147 0.097517394 2.0426834 0.022493634 25 111
-0.043799613 0.098580688 2.0651455 0.020645503 28 125
-0.034136221 0.09874218 2.0687182 0.024409255 26 116
-0.024383795 0.098480284 2.0620372 0.021879109 27 120
-0.014657096 0.098322071 2.0588503 0.021882741 24 107
-0.005048132 0.09862788 2.0653169 0.018957708 25 111
0.0046110214 0.098726392 2.0673797 0.021095989 22 98
0.014344797 0.098770559 2.0682416 0.023825152 23 102
0.023979612 0.098631926 2.0652754 0.022202644 25 111
0.033730272 0.098664202 2.0670846 0.019981861 26 116
0.043326616 0.098509714 2.0637217 0.019618588 25 111
0.05301844 0.098589055 2.0651314 0.018010413 32 143
0.06257198 0.098327406 2.0593987 0.018059649 27 120
0.071849033 0.097844973 2.0489814 0.018916132 26 116
0.081328467 0.097656719 2.045974 0.02070155 25 111
0.09104304 0.097810179 2.0488131 0.019901166 28 125
0.1005972 0.097778469 2.0476477 0.02023798 28 125
0.10992961 0.097493 2.042541 0.020115409 26 116
0.11995926 0.097925924 2.0510459 0.023773598 21 93
0.13021196 0.098352931 2.0607431 0.020081688 26 116
0.13998783 0.098484211 2.0628619 0.026685411 24 107
0.1491303 0.09807726 2.0549641 0.02202218 23 102
0.15833518 0.097852528 2.0495644 0.021838708 25 111
0.16791789 0.097810753 2.0492516 0.023580074 22 98
0.17713277 0.097626805 2.0445826 0.021779735 28 125
0.1864524 0.097486541 2.0420799 0.021779856 23 102
0.19631994 0.097595111 2.04479 0.020222845 29 129
0.20798068 0.098630667 2.0655355 0.019751092 27 120
0.21885812 0.099156134 2.0769188 0.021283854 21 93
0.22858071 0.099130362 2.076695 0.02259347 27 120
0.23793283 0.098947406 2.0731139 0.021324651 24 107
0.24703921 0.098739341 2.0676095 0.021215672 24 107
0.25602594 0.098461755 2.0619833 0.026550846 21 93
0.26486841 0.098146319 2.0555005 0.020912332 23 102
0.27454138 0.098145522 2.0555437 0.022813033 24 107
0.28695479 0.099086784 2.0753176 0.021302545 23 102
0.29285029 0.097785316 2.0480556 0.020311141 25 111
0.30170396 0.097602688 2.0428424 0.020642918 27 120
0.31265834 0.09802673 2.05165 0.020826587 25 111
0.32236928 0.098043405 2.0518677 0.021689964 26 116
0.33229199 0.098136723 2.0536253 0.02064769 28 125
0.342361 0.098244943 2.0556941 0.019884977 26 116
0.34814563 0.097165719 2.0328555 0.022671238 25 111
0.35888198 0.097485825 2.0392315 0.022946933 25 111
0.3718833 0.0983852 2.0577202 0.021110879 23 102
0.38289037 0.098737985 2.0647082 0.020123182 27 120
0.39167085 0.098494083 2.0591538 0.019229587 29 129
0.39927101 0.097984925 2.0480571 0.022798829 21 93
0.40669304 0.097454056 2.0364473 0.021529727 24 107
0.41607955 0.097404629 2.0349 0.01920351 27 120
0.4313201 0.098708801 2.0614953 0.018758021 28 125
0.44075084 0.098652512 2.0596688 0.022992367 24 107
0.45043647 0.098637611 2.058706 0.024431393 23 102
0.45943913 0.098488003 2.0548675 0.024807869 22 98
0.47014925 0.098713927 2.0587983 0.023972657 22 98
0.48226252 0.09920346 2.0681555 0.024707619 24 107
0.49150124 0.099091418 2.0649667 0.01960263 27 120
0.50089282 0.099024251 2.0626485 0.020577235 25 111
0.5085451 0.098619886 2.0532451 0.021227852 25 111
0.51889354 0.098741278 2.0547898 0.019040957 29 129
0.53066659 0.099121936 2.0616581 0.020534012 23 102
0.54029667 0.099093422 2.0600111 0.018041881 29 129
0.5487023 0.098843053 2.0536234 0.020247392 28 125
0.5575093 0.098681666 2.0491531 0.021738164 27 120
0.56697738 0.098627329 2.0467768 0.020791715 27 120
0.57713306 0.098701321 2.0470614 0.021467444 27 120
0.58605295 0.098551951 2.0426481 0.018167015 31 138
0.59511065 0.098438859 2.038924 0.018781355 27 120
0.60506582 0.098538361 2.0381916 0.019367013 25 111
0.61638331 0.098788142 2.041904 0.018609429 29 129
0.62752199 0.098989569 2.044543 0.019049549 27 120
0.63638067 0.098838769 2.0399041 0.018989455 27 120
0.64419204 0.098530382 2.0319531 0.018196626 31 138
0.65530324 0.098726429 2.0342739 0.019171378 28 125
0.66817003 0.099240974 2.0418568 0.017510558 29 129
0.68380725 0.10007097 2.0571172 0.018149514 27 120
0.69524312 0.10027865 2.0595641 0.018517727 31 138
0.70194644 0.099862359 2.0477736 0.018029535 28 125
0.71074021 0.099693902 2.0423706 0.019620275 28 125
0.72468334 0.10023136 2.051353 0.017369702 30 134
0.73756206 0.10068286 2.0571885 0.01837161 27 120
0.74928957 0.10089166 2.0592744 0.019344708 26 116
0.76176542 0.10125963 2.0632238 0.017780967 31 138
0.78868276 0.10344507 2.1055124 0.033512227 13 58
nan nan nan 0 8 35
0.18073688 0.023106439 0.46891484 0.062304575 9 40
0.18757437 0.023688799 0.47985166 0.046686236 11 49
0.19260272 0.024015462 0.48588195 0.040317893 14 62
nan nan nan 0 14 62
0.19530579 0.023778833 0.47924468 0.023778679 23 102
0.20061822 0.024124265 0.48556703 0.024825836 22 98
0.20246811 0.024065606 0.48342568 0.030482449 18 80
0.20598109 0.024189493 0.48523927 0.030015264 20 89
0.20756954 0.024100916 0.48246759 0.021398755 24 107
0.20271775 0.023274885 0.46495536 0.021487234 27 120
nan nan nan 0 15 67
0.22009777 0.024704011 0.49171025 0.026829967 21 93
0.2264692 0.025129739 0.49942845 0.014366568 37 165
0.2287285 0.025111085 0.49795282 0.0062807854 94 255
0.23207493 0.025212748 0.49884263 0.0046414924 129 255
0.23465082 0.025210837 0.49799392 0.0043881955 143 255
0.23683348 0.025187187 0.49638417 0.0043400913 149 255
0.23887764 0.025132652 0.49449921 0.0043605086 144 255
0.24054787 0.025039995 0.49185106 0.0043179714 147 255
0.24268018 0.02501668 0.49022332 0.0044061611 142 255
0.24466838 0.024962416 0.48831889 0.0045090346 135 255
0.24647388 0.024893828 0.48613733 0.0047120508 128 255
0.24771878 0.024771878 0.48290241 0.0055308305 116 255
0.24891549 0.024648858 0.47967041 0.0053235758 112 255
0.24987116 0.024491055 0.476089 0.0056086243 106 255
0.25184935 0.024454581 0.47453374 0.0055869231 105 255
0.2544204 0.024460655 0.47413892 0.0058338204 104 255
0.25863537 0.024627205 0.47686622 0.0059309448 94 255
-1.25639 0.11989482 2.1008146 0.048089635 9 40
-1.2332623 0.11870223 2.0792465 0.048605669 11 49
-1.2171075 0.11818929 2.06967 0.045669597 9 40
-1.2118676 0.11875287 2.0790207 0.039970919 10 44
-1.2097187 0.1195678 2.0942099 0.041559849 11 49
-1.1993622 0.11967061 2.0956376 0.04581435 11 49
-1.1738094 0.11818825 2.0706584 0.0392664 11 49
-1.1362467 0.11547597 2.0242341 0.041571997 13 58
-1.1316328 0.11603205 2.0363269 0.037105143 13 58
-1.1340314 0.1174078 2.0616465 0.030835144 15 67
-1.1211958 0.11716446 2.0598013 0.0432606 12 53
-1.1002614 0.11608198 2.0432415 0.02990251 15 67
-1.0963671 0.11679855 2.0583339 0.041248564 15 67
-1.08645 0.11683023 2.0626948 0.038773555 11 49
-1.0681511 0.11602965 2.0510819 0.040806938 14 62
-1.0492282 0.11508659 2.0380762 0.035072949 14 62
-1.0505112 0.11636955 2.0645685 0.046934083 14 62
-1.0415915 0.11655112 2.0715635 0.04144451 12 53
-1.0097362 0.11415012 2.03251 0.068683371 9 40
nan nan nan 0 8 35
nan nan nan 0 2 8
nan nan nan 0 3 13
nan nan nan 0 4 17
nan nan nan 0 8 35
nan nan nan 0 4 17
nan nan nan 0 3 13
nan nan nan 0 4 17
nan nan nan 0 5 22
nan nan nan 0 1 4
nan nan nan 0 5 22
nan nan nan 0 5 22
-0.84495729 0.11019442 2.0112982 0.061259408 6 26
nan nan nan 0 4 17
nan nan nan 0 5 22
nan nan nan 0 2 8
nan nan nan 0 9 40
nan nan nan 0 10 44
nan nan nan 0 5 22
-0.80837542 0.11488755 2.1215346 0.065117538 3 13
nan nan nan 0 9 40
-0.78924185 0.11511079 2.1320159 0.05875887 5 22
-0.76126081 0.11246514 2.086612 0.061763335 10 44
-0.74482459 0.11154541 2.0718651 0.048811235 9 40
-0.72699291 0.11032991 2.0526819 0.067401461 10 44
-0.71765482 0.11044428 2.0569665 0.047805469 11 49
-0.71711814 0.11193381 2.0868914 0.042859904 13 58
-0.69465518 0.10992637 2.0527093 0.051367741 7 31
-0.68181968 0.10947341 2.0462499 0.03684539 14 62
-0.67096418 0.10931697 2.0451877 0.026193695 20 89
-0.66275567 0.1096025 2.0523942 0.025482316 19 85
-0.64957446 0.10899428 2.044085 0.026758652 18 80
-0.64022082 0.10907418 2.0473039 0.026730502 19 85
-0.63158709 0.10929042 2.0530846 0.025553504 19 85
-0.62284112 0.10949175 2.0585237 0.026388578 18 80
-0.61249954 0.1094007 2.0584657 0.024577314 22 98
-0.60730207 0.11025032 2.0759845 0.022283204 21 93
-0.59664088 0.11011761 2.0750144 0.02864353 19 85
-0.58580434 0.1099453 2.073226 0.02255841 21 93
-0.57431889 0.10962839 2.0687027 0.024942905 22 98
-0.56385761 0.10950981 2.0678492 0.02515664 25 111
-0.55274701 0.10925635 2.0643768 0.021135664 27 120
-0.5411123 0.10888593 2.0586205 0.021140678 25 111
-0.530846 0.10879323 2.0581081 0.02168115 25 111
-0.51989704 0.10853854 2.054461 0.021104492 24 107
-0.50802875 0.10807614 2.0468087 0.019296877 31 138
-0.5017755 0.10882504 2.0620983 0.019904666 28 125
-0.49376953 0.10919902 2.0702288 0.020852309 28 125
-0.48450667 0.10931657 2.0735011 0.018976603 26 116
-0.47363439 0.10906567 2.0696526 0.020066289 24 107
-0.46718261 0.10984081 2.0852776 0.022845708 20 89
-0.45767841 0.10991335 2.08757 0.022741804 23 102
-0.44294852 0.10871962 2.0656726 0.024335733 22 98
-0.43335867 0.10875921 2.0671995 0.020654166 27 120
-0.42496419 0.10908794 2.0742238 0.022617579 27 120
-0.41106215 0.10799905 2.0541584 0.019595852 25 111
-0.40285105 0.10840309 2.0624843 0.020741817 25 111
-0.39053398 0.10773791 2.0492516 0.02152355 27 120
-0.38126332 0.10783011 2.051578 0.020511879 28 125
-0.37211856 0.10797884 2.0549166 0.020915018 25 111
-0.36367714 0.10834162 2.0622666 0.018654475 25 111
-0.35569689 0.10886189 2.0726171 0.01893552 29 129
-0.34777018 0.10944494 2.0841026 0.019792594 25 111
-0.33703122 0.10912657 2.0783594 0.019940523 24 107
-0.3255803 0.10856941 2.0680652 0.020315731 27 120
-0.31555218 0.10846307 2.0662918 0.02055135 24 107
-0.30596912 0.10852642 2.067687 0.022406869 22 98
-0.29518479 0.1081263 2.0602512 0.024721285 25 111
-0.28448841 0.10775212 2.0532448 0.019876497 27 120
-0.27732003 0.10873041 2.0720105 0.020572552 25 111
-0.26716986 0.10856365 2.0688291 0.021510532 27 120
-0.25687495 0.10825489 2.0641532 0.020387979 24 107
-0.24731104 0.10830584 2.0651205 0.021857494 24 107
-0.24069245 0.10972743 2.0920935 0.020107981 24 107
-0.22907902 0.10889072 2.0760086 0.020803427 24 107
-0.21734287 0.10791282 2.0571711 0.020965414 26 116
-0.20819619 0.10812014 2.0621369 0.023487732 24 107
-0.1987976 0.10830823 2.0654659 0.023609266 24 107
-0.18973055 0.10866271 2.0719035 0.022046637 26 116
-0.18046451 0.10896692 2.0773809 0.019914277 25 111
-0.16959013 0.10820863 2.0636842 0.018584928 28 125
-0.16097733 0.10895262 2.0774863 0.025589589 24 107
-0.15126085 0.10892564 2.0776722 0.030411687 17 76
-0.14088418 0.1084992 2.0690265 0.024884202 18 80
-0.13097325 0.10826953 2.0652792 0.021833332 23 102
-0.12145424 0.10847294 2.0685213 0.02397773 25 111
-0.11169149 0.10840086 2.0677164 0.022880755 23 102
-0.1016463 0.10807801 2.0607967 0.021420028 22 98
-0.091685757 0.10771034 2.0542889 0.01857589 25 111
-0.082226977 0.10791504 2.0585706 0.023560826 24 107
-0.07266327 0.1080811 2.0609145 0.021805149 26 116
-0.062982507 0.10801501 2.0599689 0.020118894 22 98
-0.053026639 0.10736798 2.0478799 0.021663804 27 120
-0.043818086 0.10828245 2.0655744 0.021396283 24 107
-0.034155916 0.10847667 2.069469 0.021838307 30 134
-0.024405442 0.10821638 2.0634265 0.021867812 27 120
-0.01469492 0.10822524 2.0636587 0.020175684 24 107
-0.0050579659 0.10849337 2.0688345 0.019240484 25 111
0.0046230927 0.10867434 2.0722854 0.022505771 23 102
0.014354842 0.10851502 2.0691841 0.024150176 23 102
0.024001176 0.10838425 2.0666275 0.01889153 25 111
0.033742797 0.10836872 2.0674098 0.023578199 22 98
0.043325145 0.10815521 2.0631471 0.02162021 26 116
0.052903865 0.10801206 2.0601647 0.023236606 27 120
0.062655233 0.1082112 2.0637107 0.021081036 25 111
0.072023444 0.1076898 2.053453 0.020661859 23 102
0.081545308 0.10751435 2.0509272 0.024619384 24 107
0.091274314 0.10766977 2.053515 0.020970983 29 129
0.10086255 0.10764956 2.0538883 0.020731643 18 80
0.1103604 0.10753547 2.0512092 0.023052242 25 111
0.12018025 0.10772829 2.0543213 0.026009323 25 111
0.13044345 0.10824972 2.0649014 0.023050852 25 111
0.14001136 0.10816762 2.0627034 0.021795392 24 107
0.14922296 0.10782115 2.0566049 0.020557836 22 98
0.15878044 0.10774388 2.0556397 0.021948304 21 93
0.16835615 0.1077429 2.0548649 0.020937597 26 116
0.17762318 0.10749222 2.0504658 0.020070316 24 107
0.18734442 0.10752159 2.0514088 0.023013398 27 120
0.19743508 0.1078411 2.0566206 0.021120228 26 116
0.2083938 0.10848679 2.0691934 0.022527462 25 111
0.21895579 0.10890337 2.0773349 0.025624568 25 111
0.22876535 0.10892066 2.0778613 0.02208752 25 111
0.23729062 0.10843755 2.067564 0.020682435 25 111
0.24687065 0.10836363 2.0662858 0.020395849 27 120
0.2562249 0.10822197 2.0635889 0.02132014 27 120
0.26518941 0.1079274 2.0579762 0.021935213 27 120
0.27440551 0.10774787 2.0545573 0.019571824 25 111
0.28443101 0.10788325 2.0570161 0.022884319 24 107
0.29134387 0.10686382 2.0374572 0.019668721 27 120
0.30206364 0.10727967 2.0452635 0.02167609 24 107
0.31157279 0.10724929 2.0444989 0.020003548 27 120
0.32257876 0.10771679 2.0531607 0.019362632 29 129
0.33269531 0.1078857 2.0560658 0.020956051 26 116
0.34353843 0.1082504 2.0627003 0.020068079 27 120
0.35231423 0.10797755 2.0571225 0.020802479 25 111
0.36089998 0.10765915 2.0506144 0.020891549 24 107
0.37209392 0.10811182 2.0587916 0.02097051 27 120
0.38320512 0.10853304 2.0663021 0.019164301 27 120
0.39150354 0.10813565 2.0581627 0.020500185 26 116
0.39837587 0.10738718 2.0433464 0.022559168 25 111
0.40693361 0.10711452 2.0375252 0.021641722 27 120
0.41851538 0.10758175 2.0469265 0.020446835 27 120
0.43061194 0.10819912 2.0579677 0.021183299 27 120
0.44037056 0.10822775 2.0577419 0.021554783 25 111
0.44940558 0.10806293 2.0538383 0.023111679 26 116
0.45894602 0.10803645 2.0524354 0.027035564 16 71
0.4703227 0.10844664 2.059324 0.030906489 17 76
0.48109105 0.10868566 2.0629561 0.026327461 21 93
0.49456719 0.10951224 2.0776651 0.02129622 26 116
0.50178933 0.10896033 2.066153 0.021695273 24 107
0.51002055 0.10864189 2.05901 0.020412069 24 107
0.51888561 0.10840067 2.0545616 0.02033576 27 120
0.53043461 0.10877875 2.0605543 0.023592161 25 111
0.54152626 0.10904878 2.0644264 0.021716896 22 98
0.5469653 0.10818881 2.0469115 0.019408988 23 102
0.55459917 0.10779569 2.0381775 0.020048324 24 107
0.56492937 0.10791657 2.0391643 0.0221054 23 102
0.57765496 0.10849324 2.0486228 0.020474469 27 120
0.59019595 0.10900252 2.056793 0.018708454 26 116
0.59585297 0.1082542 2.041235 0.017497482 27 120
0.60623753 0.10837293 2.0419023 0.019308636 29 129
0.61934614 0.10901906 2.0512609 0.020537721 27 120
0.63008302 0.10918028 2.0526416 0.0161498 30 134
0.63929349 0.10907408 2.0489924 0.019293562 26 116
0.64817101 0.10891318 2.0441861 0.019800801 28 125
0.65548348 0.10849606 2.0345788 0.019355623 26 116
0.66816694 0.10895453 2.0413222 0.02073637 26 116
0.68160647 0.10959576 2.0502329 0.017057542 28 125
0.69559664 0.11024024 2.0602763 0.016633587 30 134
0.70428872 0.11002644 2.0542693 0.019833207 26 116
0.71390152 0.10996884 2.0511148 0.01690359 33 147
0.72304308 0.10989565 2.0464334 0.019320635 31 138
0.73707414 0.11049107 2.0552938 0.0178767 31 138
0.74836999 0.11067396 2.0564628 0.018840566 29 129
0.76003116 0.1109608 2.058239 0.016392818 30 134
0.7809335 0.11250449 2.0844619 0.023819257 20 89
0.17188425 0.024453517 0.45225698 0.041437671 5 22
0.17308637 0.024306495 0.4490011 0.051650047 8 35
0.18377438 0.025491236 0.47002259 0.039416805 11 49
0.18823223 0.025780108 0.47473162 0.026679913 16 71
0.19326638 0.026155163 0.48071983 0.031866346 16 71
0.20002285 0.026733402 0.4906899 0.04052984 13 58
0.20304967 0.026820946 0.49133831 0.025288342 16 71
0.20184074 0.026355511 0.48183811 0.032236662 19 85
0.20325345 0.026221126 0.4787024 0.032315411 10 44
0.20607667 0.026285291 0.47887021 0.022330416 22 98
0.20359203 0.025664954 0.46687183 0.016673829 29 129
0.20766236 0.025889108 0.46994463 0.021864884 24 107
nan nan nan 0 24 107
0.22076386 0.026915653 0.48675194 0.021344429 24 107
0.22727057 0.027414868 0.49468198 0.008038599 73 255
0.2318766 0.02765994 0.49828196 0.0052112914 114 255
0.23534018 0.027783334 0.49937466 0.0046844031 130 255
0.23760454 0.027747221 0.49788222 0.0044093323 141 255
0.23942831 0.02767938 0.49550462 0.0042395159 146 255
0.24112535 0.027583532 0.49293199 0.0042928467 143 255
0.24278249 0.027486702 0.49033001 0.0046641962 130 255
0.24493487 0.027447008 0.48876721 0.0047855703 126 255
0.24672633 0.027371436 0.48653477 0.0052384133 121 255
0.24847567 0.027294235 0.48429388 0.0051851533 112 255
0.2494241 0.027132895 0.48056659 0.0054981927 113 255
0.25040737 0.026965177 0.47701034 0.0055154585 105 255
0.25278062 0.026951842 0.47620413 0.0058859121 98 255
0.25535154 0.026978984 0.47582018 0.0061506834 92 255
0.25540546 0.026728859 0.47085676 0.0064869607 94 255
-1.2573934 0.13080066 2.1025438 0.050275777 6 26
-1.2328541 0.12932707 2.0786133 0.048821218 8 35
-1.2023704 0.12729788 2.0446677 0.048066236 13 58
-1.2124592 0.12950167 2.0799735 0.047225758 11 49
-1.2014074 0.1294851 2.0796893 0.049668271 10 44
-1.1877879 0.12913439 2.0752854 0.037522245 15 67
-1.1432207 0.12540287 2.0166483 0.041610945 8 35
-1.1341178 0.12561186 2.0201983 0.05861279 9 40
-1.1298032 0.12623657 2.0327926 0.064098611 5 22
-1.1318282 0.12768055 2.0574584 0.044097107 9 40
-1.136093 0.12934741 2.0870616 0.056787092 6 26
-1.1320504 0.13017778 2.1019623 0.04271654 12 53
-1.085342 0.1260106 2.0373359 0.037449677 12 53
-1.0821854 0.12681083 2.0541651 0.053957172 10 44
-1.0832889 0.12821727 2.0797141 0.050527621 11 49
-1.0481424 0.12526205 2.0355432 0.067091905 6 26
nan nan nan 0 7 31
nan nan nan 0 6 26
nan nan nan 0 4 17
nan nan nan 0 6 26
nan nan nan 0 3 13
nan nan nan 0 3 13
nan nan nan 0 4 17
nan nan nan 0 6 26
nan nan nan 0 6 26
nan nan nan 0 4 17
nan nan nan 0 3 13
nan nan nan 0 3 13
nan nan nan 0 4 17
-0.90893155 0.12617235 2.105536 0.056643058 10 44
nan nan nan 0 6 26
nan nan nan 0 2 8
nan nan nan 0 2 8
nan nan nan 0 7 31
nan nan nan 0 3 13
nan nan nan 0 6 26
-0.79450697 0.11993437 2.0261126 0.06561812 6 26
-0.79487729 0.12147515 2.0559821 0.061162826 7 31
nan nan nan 0 9 40
-0.79462594 0.12458762 2.1151581 0.065424986 9 40
-0.78128982 0.12412887 2.1099157 0.056001909 11 49
-0.74216056 0.11951334 2.0339105 0.060400341 10 44
-0.73991811 0.12071294 2.057868 0.06123684 10 44
-0.73188031 0.12105335 2.0659459 0.038091403 13 58
-0.72223854 0.1211324 2.0695684 0.031067768 15 67
-0.71635002 0.12178288 2.0840497 0.023413651 23 102
-0.70373708 0.12135942 2.0790098 0.025692325 17 76
-0.68310589 0.11951878 2.049516 0.024980126 23 102
-0.67420352 0.11970417 2.0547342 0.03172715 18 80
-0.66731834 0.12019031 2.0661981 0.025768245 20 89
-0.6523971 0.11928794 2.0526478 0.026449097 20 89
-0.64037508 0.11888184 2.0474823 0.026151938 18 80
-0.63194567 0.11915076 2.0539384 0.025224177 22 98
-0.62588567 0.11987996 2.0682759 0.022934819 23 102
-0.61566168 0.11980728 2.0687866 0.019907579 26 116
-0.60483551 0.11962405 2.0672512 0.022527531 29 129
-0.59367496 0.1193653 2.0644023 0.020254849 26 116
-0.57976627 0.11853376 2.0515659 0.018715192 27 120
-0.57023627 0.11856849 2.0537105 0.022062475 25 111
-0.5630222 0.11910588 2.0645018 0.019383512 25 111
-0.55357897 0.11918008 2.0672052 0.018649906 31 138
-0.54278725 0.11895903 2.064719 0.022005731 28 125
-0.53259385 0.11887557 2.0646157 0.021040596 25 111
-0.52405047 0.11914688 2.0706098 0.020595403 29 129
-0.51287836 0.11881705 2.0660892 0.022454418 27 120
-0.49970624 0.1180795 2.0533431 0.01816296 31 138
-0.49320078 0.11883339 2.0675969 0.021375161 24 107
-0.48363557 0.11887887 2.0695317 0.021095194 26 116
-0.47607487 0.11942638 2.08008 0.02047674 26 116
-0.46915835 0.12015911 2.0938644 0.020534627 25 111
-0.45858431 0.11998073 2.0917754 0.022846222 21 93
-0.4460153 0.11930584 2.0797577 0.020395899 25 111
-0.43526524 0.11904468 2.0760846 0.021483319 22 98
-0.42570579 0.11908353 2.0776415 0.020697922 27 120
-0.41588724 0.11906554 2.0780759 0.024438225 23 102
-0.40043277 0.11741006 2.0499196 0.02262002 26 116
-0.39211527 0.11779463 2.0573728 0.023494855 26 116
-0.38299704 0.11803254 2.061084 0.021841742 23 102
